1.8035,0.2688,38.46,92,91,291625
1.7644,0.2542,38.55,92,91,291630
1.7791,0.2590,38.55,92,91,291633
1.8133,0.2639,38.46,92,91,291636
1.8280,0.2590,38.55,92,91,291640
1.8964,0.2542,38.43,92,91,291643
1.9159,0.2590,38.52,92,91,291646
1.9746,0.2590,38.58,92,91,291649
2.0626,0.2737,38.52,92,91,291653
2.1554,0.2542,38.55,92,91,291656
2.3558,0.2639,38.40,92,91,291659
2.4780,0.2639,38.55,92,91,291663
2.6979,0.2297,38.55,92,91,291666
2.9472,0.2639,38.33,92,91,291670
3.1525,0.2590,38.55,92,91,291674
3.3480,0.2688,38.27,92,91,291677
3.2502,0.2639,38.46,92,91,291680
3.0205,0.2493,38.55,92,91,291684
2.7370,0.2590,38.52,92,91,291687
2.4194,0.2590,38.65,92,91,291690
2.2092,0.2835,38.36,92,91,291693
1.9501,0.2639,38.58,92,91,291697
1.7791,0.2639,38.49,92,91,291700
1.6422,0.2590,38.55,92,91,291703
1.5494,0.2590,38.58,92,91,291707
1.5005,0.2786,38.40,92,91,291710
1.4223,0.2590,38.55,92,91,291714
1.4174,0.2590,38.49,92,91,291718
1.3881,0.2639,38.58,92,91,291721
1.3978,0.2590,38.74,92,91,291724
1.4321,0.2933,38.52,92,91,291727
1.4370,0.2542,38.55,92,91,291731
1.4761,0.2688,37.87,92,91,291734
1.4614,0.2297,38.55,92,91,291737
1.4809,0.2590,38.65,92,91,291741
1.5249,0.2639,38.46,92,91,291744
1.5396,0.2590,38.68,92,91,291747
1.5934,0.2590,38.40,92,91,291751
1.5934,0.2542,38.46,92,91,291755
1.5934,0.2590,38.58,92,91,291758
1.6031,0.2688,38.46,92,91,291762
1.5787,0.2590,38.55,92,91,291765
1.6325,0.2688,38.49,92,91,291768
1.6129,0.2542,38.49,92,91,291771
1.6080,0.2297,38.58,92,91,291775
1.6178,0.2639,38.65,92,91,291778
1.6227,0.2590,38.55,92,91,291781
1.6813,0.2688,38.27,92,91,291785
1.6471,0.2639,38.52,92,91,291788
1.6618,0.2542,38.52,92,91,291791
1.6764,0.2590,38.58,92,91,291795
1.6764,0.2590,38.58,92,91,291799
1.7253,0.2737,38.55,92,91,291802
1.7058,0.2933,38.52,92,91,291806
1.7253,0.2590,38.46,92,91,291809
1.7107,0.2933,38.55,92,91,291812
1.7155,0.2590,38.58,92,91,291815
1.7400,0.2688,37.87,92,91,291819
1.7155,0.2639,38.55,92,91,291822
1.7351,0.2639,38.43,92,91,291825
1.7155,0.2542,38.58,92,91,291829
1.7204,0.2590,38.58,92,91,291832
1.7400,0.2639,38.52,92,91,291835
1.7107,0.2639,38.62,92,91,291840
1.7498,0.2493,38.40,92,91,291843
1.7155,0.2542,38.58,92,91,291846
1.7302,0.2639,38.58,92,91,291850
1.7351,0.2639,38.52,92,91,291853
1.7302,0.2639,38.62,92,91,291856
1.7644,0.2639,38.36,92,91,291859
1.7351,0.2590,38.30,92,91,291863
1.7400,0.2590,38.55,92,91,291866
1.7791,0.2590,38.55,92,91,291869
1.7498,0.2590,38.55,92,91,291873
1.8133,0.2737,38.27,92,91,291876
1.7986,0.2639,38.55,92,91,291879
1.7840,0.2590,38.58,92,91,291884
1.7937,0.2639,38.55,92,91,291887
1.7742,0.2590,38.58,92,91,291890
1.8426,0.2786,38.33,93,91,291894
1.8622,0.2590,38.46,93,91,291897
1.7986,0.2590,38.55,93,91,291901
1.8133,0.2639,38.43,93,91,291904
1.7986,0.2590,38.52,93,91,291907
1.7986,0.2590,38.52,93,91,291910
1.8328,0.2639,38.49,93,91,291914
1.8328,0.2688,38.58,93,91,291917
1.8719,0.2639,38.43,93,91,291920
1.8475,0.2639,38.62,93,91,291924
1.8524,0.2493,38.55,93,91,291928
1.8915,0.2688,38.49,93,91,291931
1.8817,0.2590,38.58,93,91,291935
1.9257,0.2639,38.36,93,91,291938
1.9062,0.2737,38.46,93,91,291941
1.8964,0.2590,38.58,93,91,291945
1.9208,0.2786,38.49,93,91,291948
1.8964,0.2542,38.58,93,91,291951
1.9453,0.2688,38.30,93,91,291954
1.8866,0.2688,38.55,93,91,291958
1.8768,0.2493,38.58,93,91,291961
1.8719,0.2639,38.55,93,91,291964
1.8622,0.2688,38.55,93,91,291969
1.9062,0.2786,38.33,93,91,291972
1.8377,0.2590,38.52,93,91,291975
1.8426,0.2493,38.49,93,91,291979
1.8426,0.2590,38.55,93,91,291982
1.8524,0.2590,38.58,93,91,291985
1.8915,0.2688,38.49,93,91,291989
1.8622,0.2688,38.52,93,91,291992
1.8817,0.2493,38.46,93,91,291995
1.8377,0.2542,38.55,93,91,291998
1.8377,0.2590,38.55,93,91,292002
1.8622,0.2688,38.40,93,91,292005
1.8377,0.2590,38.55,93,91,292008
1.8524,0.2688,38.55,93,91,292013
1.8182,0.2737,38.52,93,91,292016
1.8182,0.2590,38.55,93,91,292019
1.8328,0.2639,38.40,93,91,292023
1.8133,0.2639,38.62,93,91,292026
1.8426,0.2639,38.36,93,91,292029
1.8084,0.2639,38.55,93,91,292033
1.8084,0.2590,38.58,93,91,292036
1.8231,0.2639,38.55,93,91,292039
1.8133,0.2542,38.58,93,91,292042
1.8573,0.2688,38.30,93,91,292046
1.8133,0.2590,38.55,93,91,292049
1.8231,0.2639,38.58,93,91,292052
1.8426,0.2639,38.52,93,91,292057
1.8328,0.2590,38.58,93,91,292060
1.8768,0.2688,38.30,93,91,292063
1.8524,0.2639,38.46,93,91,292067
1.8377,0.2542,38.77,93,91,292070
1.8426,0.2639,38.55,93,91,292073
1.8524,0.2590,38.62,93,91,292077
1.9062,0.2835,38.36,93,91,292080
1.8719,0.2688,38.58,93,91,292083
1.8622,0.2639,38.46,93,91,292086
1.8719,0.2639,38.55,93,91,292090
1.8817,0.2590,38.62,93,91,292093
1.9306,0.2737,38.43,93,91,292097
1.9013,0.2590,38.58,93,91,292101
1.9257,0.2639,38.46,93,91,292104
1.9013,0.2590,38.62,93,91,292107
1.9013,0.2590,38.58,93,91,292111
1.9159,0.2639,38.52,93,91,292114
1.9062,0.2639,38.55,93,91,292117
1.9355,0.2688,38.46,93,91,292120
1.9013,0.2590,38.55,93,91,292124
1.9013,0.2542,38.55,93,91,292127
1.9257,0.2688,38.43,93,91,292130
1.8964,0.2590,38.55,93,91,292134
1.9306,0.2639,38.36,93,91,292137
1.9257,0.2639,38.58,93,91,292141
1.9257,0.2639,38.58,93,91,292145
1.9501,0.2688,38.40,93,91,292148
1.9257,0.2590,38.55,93,91,292151
1.9746,0.2590,38.27,93,91,292155
1.9550,0.2590,38.52,93,91,292158
1.9599,0.2590,38.58,93,91,292161
2.0088,0.2639,38.55,93,91,292164
1.9892,0.2493,38.55,93,91,292168
2.0186,0.2737,38.33,93,91,292171
1.9404,0.2590,38.52,93,91,292174
1.9062,0.2542,38.52,93,91,292178
1.8768,0.2639,38.49,93,91,292182
1.8573,0.2297,38.62,93,91,292185
1.8866,0.2786,38.40,93,91,292189
1.8524,0.2639,38.55,93,91,292192
1.8280,0.2590,38.46,93,91,292195
1.8084,0.2688,38.58,93,91,292199
1.8133,0.2590,38.58,93,91,292202
1.8524,0.2688,38.62,93,91,292205
1.8182,0.2493,38.55,93,91,292208
1.8231,0.2639,38.55,93,91,292212
1.7889,0.2590,38.62,93,91,292215
1.7742,0.2590,38.55,93,91,292218
1.7840,0.3030,38.43,93,91,292222
1.7546,0.2542,38.55,93,91,292226
1.7889,0.2639,38.43,93,91,292229
1.7742,0.2542,38.52,93,91,292233
1.8231,0.2493,38.58,93,91,292236
1.8133,0.2639,38.52,93,91,292239
1.8084,0.2590,38.55,93,91,292243
1.8426,0.2639,38.36,93,91,292246
1.7986,0.2639,38.62,93,91,292249
1.8084,0.2493,38.55,93,91,292252
1.8231,0.2688,38.46,93,91,292256
1.8182,0.2493,38.58,93,91,292259
1.8817,0.2688,38.30,93,91,292262
1.8719,0.2688,38.43,93,91,292267
1.8866,0.2639,38.58,93,91,292270
1.9501,0.2639,38.46,93,91,292273
2.0186,0.2639,38.58,93,91,292277
2.2043,0.2786,38.33,93,91,292280
2.2776,0.2688,38.84,93,91,292283
2.4487,0.2590,38.49,93,91,292286
2.6931,0.2639,38.55,93,91,292290
2.9374,0.2590,38.55,93,91,292293
3.2209,0.2737,38.40,93,91,292296
3.2796,0.2542,38.52,93,91,292300
3.2600,0.2590,38.49,93,91,292303
3.0401,0.2639,38.58,93,91,292306
2.7468,0.3030,38.58,93,91,292311
2.5024,0.2737,38.49,93,91,292314
2.1896,0.2639,38.55,93,91,292317
1.9648,0.2639,38.46,93,91,292320
1.7449,0.2639,38.58,93,91,292324
1.5982,0.2590,38.46,93,91,292327
1.5200,0.2639,38.43,93,91,292330
1.4467,0.2639,38.55,93,91,292334
1.4272,0.2639,38.49,93,91,292337
1.3783,0.2590,38.49,93,91,292340
1.3587,0.2590,38.77,93,91,292344
1.3539,0.2493,38.43,93,91,292347
1.3636,0.2590,38.58,93,91,292350
1.4321,0.3177,38.33,93,91,292355
1.4418,0.2590,38.52,93,91,292358
1.4809,0.2590,38.65,93,91,292361
1.5054,0.2786,38.55,93,91,292364
1.5152,0.2639,38.58,93,91,292368
1.5543,0.2737,38.21,93,91,292371
1.5298,0.2590,38.55,93,91,292374
1.5494,0.2590,38.55,93,91,292378
1.5934,0.2639,38.55,93,91,292381
1.5787,0.2639,38.58,93,91,292384
1.6325,0.2786,38.36,93,91,292388
1.6080,0.2688,38.65,93,91,292391
1.6276,0.2590,37.74,93,91,292395
1.6422,0.2639,38.55,93,91,292399
1.6520,0.2590,38.62,93,91,292402
1.6960,0.3226,38.36,93,91,292405
1.6911,0.2688,38.52,93,91,292408
1.6911,0.2786,38.43,93,91,292412
1.6667,0.2590,38.58,93,91,292415
1.6813,0.2590,38.55,93,91,292418
1.6960,0.2688,38.46,93,91,292422
1.6716,0.2639,38.62,93,91,292425
1.7058,0.2688,38.40,93,91,292428
1.6960,0.2737,38.55,93,91,292432
1.7058,0.2590,38.58,93,91,292435
1.7107,0.2639,38.52,93,91,292439
1.6862,0.2688,38.58,93,91,292443
1.6960,0.2639,38.43,93,91,292446
1.6764,0.2639,38.55,93,91,292449
1.6813,0.2590,38.58,93,91,292452
1.7107,0.2688,38.52,93,91,292456
1.7253,0.2639,38.55,93,91,292459
1.7693,0.2688,38.24,93,91,292462
1.7693,0.2737,38.49,93,91,292466
1.7644,0.2590,38.58,93,91,292469
1.7791,0.2688,38.40,93,91,292472
1.7546,0.2639,38.58,93,91,292476
1.7986,0.2737,38.30,93,91,292480
1.7498,0.2639,38.46,93,91,292483
1.7400,0.2542,38.55,93,91,292487
1.7498,0.2639,38.49,93,91,292490
1.7546,0.2835,38.55,93,91,292493
1.7986,0.2786,38.40,93,91,292496
1.7546,0.2639,38.77,93,91,292500
1.7498,0.2639,38.49,93,91,292503
1.7351,0.2639,38.58,93,91,292506
1.7840,0.2639,38.58,93,91,292511
1.7937,0.2590,38.62,93,91,292514
1.8328,0.2835,38.46,93,91,292518
1.8133,0.2639,38.58,93,91,292521
1.8328,0.2786,38.40,93,91,292525
1.8182,0.2639,38.49,93,91,292529
1.8280,0.2590,38.58,93,91,292532
1.8524,0.2786,38.46,93,91,292535
1.8377,0.2639,38.58,93,91,292539
1.8768,0.2688,38.46,93,91,292542
1.8573,0.2639,38.55,93,91,292545
1.8719,0.2590,38.58,93,91,292548
1.8915,0.2639,38.11,93,91,292552
1.8915,0.2639,38.58,93,91,292555
1.9550,0.2737,38.27,93,91,292558
1.9257,0.2639,38.52,93,91,292562
1.9404,0.2542,38.55,93,91,292566
1.9355,0.2639,38.77,93,91,292569
1.9110,0.2639,38.55,93,91,292573
1.9355,0.2786,38.49,93,91,292576
1.8866,0.2737,38.49,93,91,292579
1.8915,0.2493,38.49,93,91,292582
1.8866,0.2639,38.62,93,91,292586
1.9062,0.2639,38.62,93,91,292589
1.9013,0.2688,38.40,93,91,292592
1.8671,0.2590,38.55,93,91,292596
1.8817,0.2639,38.43,93,91,292599
1.8475,0.2639,38.52,93,91,292602
1.8377,0.2639,38.58,93,91,292606
1.8475,0.2737,38.49,93,91,292610
1.8231,0.2639,38.58,93,91,292613
1.8817,0.2737,38.46,93,91,292617
1.8475,0.2590,38.55,93,91,292620
1.8475,0.2542,38.62,93,91,292623
1.8426,0.2639,38.52,93,91,292626
1.8182,0.2590,38.58,93,91,292630
1.8328,0.2688,38.36,93,91,292633
1.8182,0.2639,38.58,93,91,292636
1.8377,0.2590,38.62,93,91,292640
1.8622,0.2737,38.52,93,91,292643
1.8280,0.2639,38.58,93,91,292646
1.8573,0.2786,38.30,93,91,292651
1.8182,0.2688,38.46,93,91,292654
1.7742,0.2590,38.58,93,91,292657
1.7791,0.2688,38.55,93,91,292661
1.7742,0.2590,38.55,93,91,292664
1.8328,0.2737,38.27,93,91,292667
1.8084,0.2639,38.43,93,91,292670
1.8084,0.2590,38.84,93,91,292674
1.8328,0.2639,38.62,93,91,292677
1.8426,0.2590,38.55,93,91,292680
1.8768,0.2786,38.30,93,91,292684
1.8328,0.2688,38.55,93,91,292687
1.7840,0.2590,38.49,93,91,292690
1.7791,0.2639,38.62,93,91,292695
1.7937,0.2590,38.55,93,91,292698
1.8231,0.2688,38.52,93,91,292701
1.8084,0.2493,38.55,93,91,292705
1.8377,0.2493,38.43,93,91,292708
1.8231,0.2688,38.68,93,91,292711
1.8377,0.2590,38.58,93,91,292714
1.8866,0.2688,38.33,93,91,292718
1.8573,0.2493,38.55,93,91,292721
1.8817,0.2639,38.46,93,91,292724
1.8719,0.2688,38.55,93,91,292728
1.8817,0.2590,38.58,93,91,292731
1.8866,0.2688,38.58,93,91,292734
1.8524,0.2933,38.52,93,91,292739
1.8817,0.2688,38.36,93,91,292742
1.8524,0.2590,38.52,93,91,292745
1.8671,0.2493,38.58,93,91,292748
1.8768,0.2639,38.55,93,91,292752
1.8719,0.2639,38.55,93,91,292755
1.9355,0.2737,38.30,93,91,292758
1.8964,0.2639,38.52,93,91,292762
1.9159,0.2590,38.62,93,91,292765
1.9550,0.2639,38.52,93,91,292768
1.9795,0.2493,38.55,93,91,292772
2.0283,0.2835,38.27,93,91,292775
1.9746,0.2639,38.49,93,91,292779
1.9746,0.2590,38.52,93,91,292783
1.9648,0.2639,38.55,93,91,292786
1.9844,0.2493,38.55,93,91,292789
1.9990,0.2737,38.62,93,91,292793
1.9404,0.2688,38.52,93,91,292796
1.8964,0.2639,38.46,93,91,292799
1.8475,0.2639,38.68,93,91,292802
1.8377,0.2639,38.55,93,91,292806
1.8622,0.2688,38.46,93,91,292809
1.8475,0.2639,38.52,93,91,292812
1.8817,0.2688,38.43,93,91,292816
1.8426,0.2639,38.58,93,91,292819
1.8280,0.3079,38.55,93,91,292823
1.8182,0.2493,38.49,93,91,292827
1.7986,0.2639,38.65,93,91,292830
1.8280,0.3030,38.40,93,91,292833
1.8084,0.2639,38.58,93,91,292836
1.8035,0.2590,38.58,93,91,292840
1.8084,0.2688,38.46,93,91,292843
1.8084,0.2493,38.55,93,91,292846
1.8475,0.2688,38.36,93,91,292850
1.8182,0.2590,38.43,93,91,292853
1.7937,0.2590,38.58,93,91,292856
1.8035,0.2688,38.46,93,91,292860
1.7644,0.2639,38.58,93,91,292864
1.7986,0.2688,38.30,93,91,292867
1.7644,0.3030,38.46,93,91,292871
1.7742,0.2639,38.58,93,91,292874
1.7791,0.2639,38.55,93,91,292877
1.7840,0.2639,38.55,93,91,292880
1.8524,0.2835,38.36,93,91,292884
1.8280,0.2590,38.52,93,91,292887
1.8671,0.2639,38.49,93,91,292890
1.9453,0.2639,38.77,93,91,292894
2.0772,0.2639,38.58,93,91,292897
2.2825,0.2737,38.65,93,91,292900
2.4829,0.2884,38.52,93,91,292904
2.7957,0.2737,38.43,93,91,292908
3.0254,0.2688,38.55,93,91,292911
3.2454,0.2639,38.55,93,91,292915
3.4213,0.2737,38.43,93,91,292918
3.3480,0.2639,38.55,93,91,292921
3.2014,0.2737,38.46,93,91,292924
2.8446,0.2542,38.55,93,91,292928
2.4829,0.2981,38.58,93,91,292931
2.1750,0.2688,38.46,93,91,292934
1.8964,0.2639,38.58,93,91,292938
1.7302,0.2639,38.33,93,91,292941
1.5738,0.2493,38.49,93,91,292944
1.4565,0.2590,38.58,93,91,292948
1.4027,0.2493,38.52,93,91,292952
1.3294,0.2639,38.58,93,91,292955
1.3441,0.2688,38.33,93,91,292958
1.3294,0.2590,38.58,93,91,292962
1.3001,0.2590,38.55,93,91,292965
1.3099,0.2639,38.46,93,91,292968
1.3490,0.2493,38.58,93,91,292972
1.4223,0.2737,38.30,93,91,292975
1.4614,0.3030,38.52,93,91,292978
1.4761,0.2590,38.55,93,91,292982
1.4809,0.2639,38.58,93,91,292985
1.4858,0.2688,38.55,93,91,292988
1.5494,0.2835,38.43,93,91,292993
1.5200,0.2688,38.49,93,91,292996
1.5152,0.2590,38.46,93,91,292999
1.5103,0.2639,38.55,93,91,293002
1.5298,0.2590,38.74,93,91,293006
1.5591,0.2688,38.46,93,91,293009
1.5640,0.2639,38.55,93,91,293012
1.5885,0.2639,38.55,93,91,293016
1.5738,0.2542,38.62,93,91,293019
1.5836,0.2590,38.58,93,91,293022
1.6178,0.2688,37.74,93,91,293026
1.6276,0.2737,38.55,93,91,293029
1.6667,0.2688,38.46,93,91,293032
1.6667,0.2590,38.55,93,91,293037
1.6569,0.2590,38.55,93,91,293040
1.6813,0.2737,38.46,93,91,293043
1.6618,0.2639,38.58,93,91,293046
1.6911,0.2639,38.40,93,91,293050
1.6716,0.2737,38.55,93,91,293053
1.6667,0.2590,38.58,93,91,293056
1.6813,0.2737,38.46,93,91,293060
1.6764,0.2590,38.58,93,91,293063
1.7253,0.2688,38.30,93,91,293066
1.7009,0.2639,38.49,93,91,293070
1.7009,0.2590,38.58,93,91,293073
1.7058,0.2639,38.55,93,91,293076
1.6862,0.2590,38.65,93,91,293080
1.7155,0.2737,38.27,93,91,293084
1.6569,0.2639,38.55,93,91,293087
1.6520,0.2590,38.49,93,91,293090
1.6569,0.2639,38.55,93,91,293094
1.6569,0.2639,37.80,93,91,293097
1.7155,0.2933,38.40,93,91,293100
1.6813,0.2639,38.55,93,91,293104
1.6618,0.2639,38.49,93,91,293107
1.6422,0.2493,38.58,93,91,293110
1.6520,0.2639,38.65,93,91,293114
1.6862,0.2786,38.40,93,91,293117
1.6911,0.2688,38.46,93,91,293123
1.6716,0.2639,38.58,93,91,293126
1.6911,0.2639,38.40,93,91,293129
1.6813,0.2639,38.52,93,91,293132
1.6911,0.2590,38.77,93,91,293136
1.7107,0.2786,38.52,93,91,293139
1.7204,0.2639,38.62,93,91,293142
1.7791,0.2737,38.30,93,91,293146
1.7693,0.2493,38.55,93,91,293149
1.7595,0.2590,38.58,93,91,293152
1.7742,0.2786,38.55,93,91,293156
1.7742,0.2639,38.58,93,91,293159
1.8280,0.2786,38.27,93,91,293163
1.8133,0.2493,38.49,93,91,293167
1.7986,0.2590,38.65,93,91,293170
1.8377,0.2493,38.55,93,91,293173
1.7986,0.2639,38.62,93,91,293176
1.8475,0.2737,38.33,93,91,293180
1.8231,0.2688,38.49,93,91,293183
1.8231,0.2639,38.49,93,91,293186
1.8182,0.2639,38.55,93,91,293190
1.8182,0.2590,38.58,93,91,293193
1.8475,0.2786,38.43,93,91,293196
1.8573,0.2639,38.58,93,91,293200
1.8719,0.2688,38.43,93,91,293203
1.8377,0.2639,38.62,93,91,293207
1.8328,0.2639,38.62,93,91,293211
1.8573,0.2688,38.52,93,91,293214
1.8622,0.2639,38.58,93,91,293217
1.8426,0.2639,38.46,93,91,293220
1.7742,0.2639,38.58,93,91,293224
1.7644,0.2590,38.58,93,91,293227
1.7840,0.2688,38.58,93,91,293230
1.7840,0.2590,38.55,93,91,293234
1.8035,0.2688,38.40,93,91,293237
1.7742,0.2639,38.71,93,91,293240
1.7595,0.2639,38.58,93,91,293244
1.7693,0.2688,38.55,93,91,293248
1.7400,0.2590,38.62,93,91,293251
1.7840,0.2786,38.40,93,91,293255
1.7546,0.2639,38.49,93,91,293258
1.7546,0.2639,38.62,93,91,293261
1.7889,0.2590,38.58,93,91,293264
1.7449,0.2639,38.58,93,91,293268
1.7889,0.2835,38.30,93,91,293271
1.7449,0.2639,38.55,93,91,293274
1.7302,0.2590,38.55,93,91,293278
1.7302,0.2835,38.55,93,91,293281
1.7351,0.2590,38.62,93,91,293284
1.7693,0.2786,38.46,93,91,293288
1.7253,0.2737,38.49,93,91,293292
1.7107,0.2639,38.46,93,91,293295
1.7107,0.2542,38.58,93,91,293299
1.6813,0.2639,38.58,93,91,293302
1.7155,0.2737,38.40,93,91,293305
1.7009,0.2639,38.55,93,91,293308
1.7302,0.2688,38.52,93,91,293312
1.7155,0.3128,38.68,93,91,293315
1.7204,0.2639,38.58,93,91,293318
1.7498,0.2737,38.49,93,91,293322
1.7302,0.2493,38.55,93,91,293325
1.7693,0.2639,38.43,93,91,293328
1.7400,0.2737,38.55,93,91,293332
1.7595,0.2639,38.55,93,91,293336
1.7840,0.2639,38.58,93,91,293339
1.7889,0.2639,38.58,93,91,293342
1.8280,0.2639,38.33,93,91,293346
1.7986,0.2590,38.58,93,91,293349
1.8084,0.2639,38.55,93,91,293352
1.8231,0.2737,38.49,93,91,293356
1.7937,0.2493,38.58,93,91,293359
1.8426,0.2737,38.30,93,91,293362
1.8231,0.2688,38.55,93,91,293366
1.8231,0.2835,38.58,93,91,293369
1.8328,0.2639,38.65,93,91,293372
1.8182,0.2933,38.55,93,91,293377
1.8719,0.2835,38.43,93,91,293380
1.8280,0.2786,38.46,93,91,293383
1.8231,0.2639,38.49,93,91,293386
1.8182,0.2639,38.24,93,91,293390
1.8377,0.2688,38.58,93,91,293393
1.8964,0.2688,38.46,93,91,293396
1.9013,0.2639,38.58,93,91,293400
1.9257,0.2639,38.46,93,91,293403
1.8964,0.2639,38.58,93,91,293406
1.8866,0.2639,38.55,93,91,293410
1.8915,0.2688,38.55,93,91,293413
1.8524,0.2639,38.52,93,91,293416
1.8426,0.2835,38.46,93,91,293421
1.7889,0.2639,38.65,93,91,293424
1.7742,0.2933,38.58,93,91,293427
1.7889,0.2688,38.43,93,91,293430
1.7644,0.2639,38.55,93,91,293434
1.7889,0.2639,38.40,93,91,293437
1.7644,0.2639,38.55,93,91,293440
1.7595,0.2639,38.62,93,91,293444
1.7840,0.2737,38.49,93,91,293447
1.7498,0.2639,38.58,93,91,293450
1.7840,0.2737,38.30,93,91,293454
1.7449,0.2639,38.49,93,91,293457
1.7155,0.2639,38.55,93,91,293460
1.7204,0.2639,38.55,93,91,293465
1.7204,0.2639,38.58,93,91,293468
1.7644,0.2786,38.27,93,91,293471
1.7155,0.2639,38.52,93,91,293474
1.7058,0.2590,38.55,93,91,293478
1.7009,0.2688,38.58,93,91,293481
1.6960,0.2639,38.58,93,91,293484
1.7498,0.2786,37.71,93,91,293488
1.7351,0.2737,38.55,93,91,293491
1.7400,0.2639,38.49,93,91,293494
1.7302,0.2639,38.68,93,91,293498
1.7449,0.2639,38.55,93,91,293501
1.7889,0.2737,38.36,93,91,293505
1.7986,0.2688,38.55,93,91,293509
1.8671,0.2688,38.43,93,91,293512
1.9355,0.2493,38.58,93,91,293515
2.0332,0.2639,38.58,93,91,293518
2.2239,0.2688,38.43,93,91,293522
2.4047,0.2639,38.68,93,91,293525
2.6979,0.2639,38.43,93,91,293528
2.9179,0.2590,38.55,93,91,293532
3.1525,0.2786,38.52,93,91,293535
3.3089,0.2688,38.49,93,91,293538
3.2796,0.2639,38.58,93,91,293542
3.1232,0.2981,38.40,93,91,293545
2.7468,0.2639,38.65,93,91,293549
2.4145,0.2688,38.58,93,91,293553
2.1310,0.2737,38.52,93,91,293556
1.8475,0.2688,38.62,93,91,293559
1.6862,0.2737,38.30,93,91,293562
1.4907,0.2688,38.49,93,91,293566
1.3685,0.2688,38.62,93,91,293569
1.3196,0.2688,38.55,93,91,293572
1.2903,0.2639,37.80,93,91,293576
1.3294,0.2835,38.36,93,91,293579
1.3099,0.2688,38.58,93,91,293582
1.3245,0.2590,38.58,93,91,293586
1.3490,0.2639,38.55,93,91,293590
1.3636,0.2493,38.58,93,91,293593
1.4125,0.2786,38.46,93,91,293596
1.3881,0.2688,38.58,93,91,293600
1.3734,0.2639,38.46,93,91,293603
1.3783,0.2639,38.58,93,91,293606
1.4027,0.2639,38.62,93,91,293610
1.4516,0.2786,38.52,93,91,293613
1.4712,0.2590,38.55,93,91,293616
1.5152,0.2688,38.43,93,91,293620
1.5445,0.2639,38.55,93,91,293623
1.5347,0.2639,38.58,93,91,293626
1.5738,0.2688,38.55,93,91,293630
1.5689,0.2639,37.99,93,91,293634
1.6031,0.2737,38.40,93,91,293637
1.5885,0.2590,38.49,93,91,293641
1.6031,0.2639,38.58,93,91,293644
1.6227,0.2639,38.43,93,91,293647
1.6129,0.2639,38.55,93,91,293650
1.6569,0.2688,38.43,93,91,293654
1.6325,0.2688,38.52,93,91,293657
1.6325,0.2639,38.62,93,91,293660
1.6373,0.2884,38.55,93,91,293664
1.6325,0.2639,38.58,93,91,293667
1.6716,0.2737,38.27,93,91,293670
1.6276,0.2639,38.40,93,91,293675
1.6373,0.2590,38.52,93,91,293678
1.6422,0.2688,38.55,93,91,293681
1.6520,0.2639,38.58,93,91,293685
1.7351,0.2786,38.43,93,91,293688
1.6716,0.2688,38.52,93,91,293691
1.6716,0.2688,38.55,93,91,293694
1.6667,0.2639,38.58,93,91,293698
1.6716,0.2639,38.58,93,91,293701
1.7058,0.2737,38.40,93,91,293704
1.6813,0.2688,38.52,93,91,293708
1.6911,0.2590,38.40,93,91,293711
1.6667,0.2639,38.55,93,91,293714
1.6618,0.2639,38.58,93,91,293719
1.6862,0.2688,38.46,93,91,293722
1.6667,0.2639,38.49,93,91,293725
1.7009,0.3030,38.43,93,91,293729
1.6716,0.2688,38.36,93,91,293732
1.7058,0.2639,38.62,93,91,293737
1.7351,0.2639,38.65,93,91,293740
1.7449,0.2737,38.55,93,91,293743
1.7302,0.2639,38.62,93,91,293746
1.7742,0.2786,38.27,93,91,293750
1.7400,0.2688,38.52,93,91,293753
1.7302,0.2590,38.52,93,91,293756
1.7546,0.2493,38.55,93,91,293761
1.7498,0.2639,38.62,93,91,293764
1.7986,0.2835,38.36,93,91,293767
1.7498,0.2688,38.55,93,91,293771
1.7351,0.2639,38.52,93,91,293774
1.7400,0.2590,38.55,93,91,293777
1.7693,0.2639,38.49,93,91,293781
1.8182,0.2737,38.46,93,91,293784
1.8133,0.2639,38.65,93,91,293787
1.8524,0.2639,38.43,93,91,293790
1.8475,0.2639,38.58,93,91,293794
1.8524,0.2639,38.55,93,91,293797
1.8671,0.2688,38.52,93,91,293800
1.8475,0.2688,38.55,93,91,293805
1.8671,0.2737,38.49,93,91,293808
1.8280,0.2639,38.62,93,91,293811
1.8328,0.2688,38.55,93,91,293815
1.8622,0.2688,38.65,93,91,293818
1.8768,0.2493,38.62,93,91,293821
1.8817,0.2688,38.36,93,91,293825
1.8573,0.3030,38.49,93,91,293828
1.8573,0.2590,38.68,93,91,293831
1.8573,0.2688,38.52,93,91,293834
1.8377,0.2737,38.62,93,91,293838
1.8964,0.2737,38.30,93,91,293841
1.8573,0.2639,38.46,93,91,293844
1.8719,0.2493,38.58,93,91,293849
1.8475,0.2639,38.55,93,91,293852
1.8280,0.2688,38.58,93,91,293855
1.8622,0.2786,38.33,93,91,293859
1.7986,0.2688,38.62,93,91,293862
1.7791,0.2933,38.49,93,91,293865
1.7742,0.2688,38.58,93,91,293869
1.7742,0.2737,38.58,93,91,293872
1.8328,0.2786,38.43,93,91,293875
1.8133,0.2688,38.43,93,91,293878
1.8133,0.2639,38.46,93,91,293882
1.7791,0.2639,38.77,93,91,293885
1.7644,0.2688,38.58,93,91,293889
1.7937,0.2737,38.46,93,91,293893
1.7742,0.2639,38.68,93,91,293896
1.7986,0.2737,38.43,93,91,293899
1.7644,0.2639,38.49,93,91,293903
1.7595,0.2884,38.55,93,91,293906
1.7644,0.2688,38.46,93,91,293909
1.7351,0.2688,38.62,93,91,293913
1.7498,0.2639,38.43,93,91,293916
1.7400,0.2639,38.52,93,91,293919
1.7595,0.2639,38.58,93,91,293922
1.7840,0.2688,38.55,93,91,293926
1.7791,0.2639,38.36,93,91,293929
1.8035,0.2737,38.30,93,91,293933
1.7546,0.2639,38.65,93,91,293937
1.7498,0.2639,38.58,93,91,293940
1.7498,0.2688,38.52,93,91,293943
1.7253,0.3079,38.58,93,91,293947
1.7742,0.2688,38.27,93,91,293950
1.7498,0.2688,38.43,93,91,293953
1.7498,0.2688,38.52,93,91,293957
1.7644,0.2688,38.58,93,91,293960
1.7644,0.2639,38.58,93,91,293963
1.8231,0.2786,38.40,93,91,293966
1.7937,0.2737,38.43,93,91,293970
1.7986,0.2688,38.46,93,91,293974
1.7840,0.2639,38.58,93,91,293977
1.7889,0.2639,38.55,93,91,293981
1.8231,0.2688,38.43,93,91,293984
1.8035,0.2639,38.62,93,91,293987
1.8328,0.2786,38.43,93,91,293991
1.8182,0.2639,38.55,93,91,293994
1.8622,0.2590,38.58,93,91,293997
1.8524,0.2688,38.52,93,91,294001
1.8573,0.2639,38.52,93,91,294004
1.9013,0.2737,38.43,93,91,294007
1.8719,0.2884,38.62,93,91,294011
1.8817,0.2639,38.62,93,91,294014
1.9208,0.2688,38.49,93,91,294018
1.9159,0.2639,38.55,93,91,294021
1.9355,0.2688,38.36,93,91,294025
1.9013,0.2688,38.55,93,91,294028
1.8817,0.2639,38.55,93,91,294031
1.8866,0.2688,38.52,93,91,294035
1.8475,0.2688,38.58,93,91,294038
1.8719,0.2737,38.30,93,91,294041
1.8084,0.2688,38.46,93,91,294045
1.8280,0.2493,38.55,93,91,294048
1.7937,0.2688,38.55,93,91,294051
1.7889,0.2639,38.58,93,91,294055
1.8231,0.2835,38.33,93,91,294059
1.7546,0.2688,38.55,93,91,294062
1.7400,0.2639,38.52,93,91,294065
1.6862,0.2737,38.55,93,91,294069
1.6764,0.2884,38.55,93,91,294072
1.7204,0.2786,38.46,93,91,294075
1.7009,0.2688,38.58,93,91,294079
1.7107,0.2688,38.49,93,91,294082
1.6960,0.2639,37.80,93,91,294085
1.6960,0.2639,38.62,93,91,294089
1.7351,0.2737,38.40,93,91,294092
1.6813,0.2688,37.74,93,91,294095
1.6862,0.2688,38.43,93,91,294098
1.6569,0.2639,38.52,93,91,294103
1.6569,0.2639,38.65,93,91,294106
1.6764,0.2737,38.46,93,91,294109
1.6716,0.2639,38.58,93,91,294113
1.7107,0.2639,38.40,93,91,294116
1.7058,0.2590,38.52,93,91,294119
1.7253,0.2639,38.55,93,91,294123
1.7595,0.2639,38.52,93,91,294126
1.7840,0.2639,38.58,93,91,294129
1.8817,0.2737,38.40,93,91,294133
1.9599,0.2639,38.55,93,91,294136
2.0723,0.2639,38.58,93,91,294139
2.2630,0.2688,38.43,93,91,294142
2.4976,0.2639,38.55,93,91,294147
2.7859,0.2786,38.43,93,91,294150
2.9961,0.2737,38.46,93,91,294153
3.1769,0.2590,38.58,93,91,294157
3.2454,0.2688,38.49,93,91,294160
3.1134,0.2737,38.62,93,91,294163
2.9130,0.2835,38.36,93,91,294167
2.5171,0.2737,38.55,93,91,294170
2.1799,0.2639,38.52,93,91,294173
1.8915,0.2639,38.55,93,91,294177
1.6960,0.2590,38.55,93,91,294180
1.5543,0.2737,38.46,93,91,294183
1.4223,0.2639,38.62,93,91,294187
1.3636,0.2590,38.46,93,91,294191
1.3148,0.2639,38.58,93,91,294194
1.3196,0.2590,38.62,93,91,294197
1.3050,0.2688,38.52,93,91,294201
1.3001,0.2639,38.52,93,91,294204
1.3343,0.2737,38.55,93,91,294207
1.3392,0.2639,38.55,93,91,294211
1.3685,0.2590,38.58,93,91,294214
1.4125,0.2737,38.49,93,91,294217
1.4125,0.2639,38.55,93,91,294221
1.4467,0.2737,38.36,93,91,294224
1.4418,0.2688,38.46,93,91,294227
1.4418,0.2688,38.55,93,91,294231
1.4712,0.2737,38.58,93,91,294235
1.4712,0.2737,38.58,93,91,294238
1.5249,0.2737,38.33,93,91,294241
1.5152,0.2590,38.49,93,91,294245
1.5249,0.2639,38.58,93,91,294248
1.5347,0.2688,38.55,93,91,294251
1.5396,0.2639,38.58,93,91,294255
1.5885,0.2884,38.33,93,91,294258
1.5689,0.2590,38.55,93,91,294261
1.5640,0.2590,38.52,93,91,294265
1.5689,0.2688,38.46,93,91,294268
1.5836,0.2493,38.52,93,91,294272
1.6227,0.2786,38.43,93,91,294276
1.6031,0.2688,38.62,93,91,294279
1.6227,0.2639,38.49,93,91,294282
1.6031,0.2737,38.62,93,91,294285
1.6129,0.2590,38.58,93,91,294289
1.6520,0.2737,38.36,93,91,294292
1.6569,0.2639,38.49,93,91,294295
1.6667,0.2688,38.43,93,91,294299
1.6422,0.2639,38.65,93,91,294302
1.6471,0.2639,38.58,93,91,294305
1.6716,0.2688,38.43,93,91,294309
1.6520,0.2639,38.62,93,91,294312
1.6813,0.2639,38.43,93,91,294316
1.6569,0.2639,38.52,93,91,294320
1.6813,0.2493,38.58,93,91,294323
1.6764,0.2688,38.55,93,91,294326
1.6764,0.2688,38.62,93,91,294329
1.7204,0.2737,38.33,93,91,294333
1.6911,0.2639,38.58,93,91,294336
1.7400,0.2590,38.58,93,91,294339
1.7204,0.2688,38.55,93,91,294343
1.7644,0.2688,38.55,93,91,294347
1.7644,0.2639,38.55,93,91,294351
1.8084,0.2835,38.40,93,91,294354
1.7889,0.2688,38.40,93,91,294358
1.7937,0.2639,38.49,93,91,294362
1.7889,0.2639,38.58,93,91,294365
1.7889,0.2639,38.65,93,91,294368
1.8328,0.2737,38.43,93,91,294372
1.7791,0.2639,38.55,93,91,294375
1.7937,0.2639,38.43,93,91,294378
1.7644,0.2639,38.55,93,91,294381
1.7693,0.2639,38.58,93,91,294385
1.8035,0.2737,38.52,93,91,294388
1.7840,0.2688,38.55,93,91,294391
1.8182,0.2639,38.40,93,91,294395
1.7986,0.2639,37.99,93,91,294398
1.8133,0.2639,38.62,93,91,294402
1.8475,0.2688,38.49,93,91,294406
1.8377,0.2639,38.62,93,91,294409
1.9208,0.2737,38.33,93,91,294412
1.8719,0.2688,38.52,93,91,294416
1.8573,0.2737,38.55,93,91,294419
1.8719,0.2688,38.52,93,91,294422
1.8524,0.2639,38.77,93,91,294425
1.9013,0.2737,38.30,93,91,294429
1.8622,0.2688,38.46,93,91,294432
1.8524,0.2590,38.58,93,91,294435
1.8524,0.2639,38.58,93,91,294439
1.8573,0.2639,38.58,93,91,294443
1.9110,0.2835,38.46,93,91,294446
1.8622,0.2737,38.55,93,91,294450
1.8573,0.2493,38.49,93,91,294453
1.8426,0.2688,38.58,93,91,294456
1.8328,0.2639,38.58,93,91,294460
1.8671,0.2786,38.55,93,91,294463
1.8475,0.2688,38.52,93,91,294466
1.8573,0.2688,38.52,93,91,294469
1.8280,0.2639,38.58,93,91,294473
1.8328,0.2639,38.65,93,91,294476
1.8622,0.2786,38.40,93,91,294479
1.8328,0.2688,38.58,93,91,294483
1.8524,0.2835,38.43,93,91,294487
1.8035,0.2590,38.52,93,91,294490
1.8035,0.2639,38.58,93,91,294494
1.8231,0.2737,38.43,93,91,294497
1.8084,0.2639,38.55,93,91,294500
1.8426,0.2688,38.36,93,91,294504
1.8182,0.2639,38.49,93,91,294507
1.8133,0.2639,38.58,93,91,294510
1.8182,0.2737,38.55,93,91,294513
1.8084,0.2639,38.58,93,91,294517
1.8524,0.2737,38.33,93,91,294520
1.8084,0.2688,38.55,93,91,294523
1.8035,0.2590,38.58,93,91,294528
1.8035,0.2688,38.62,93,91,294531
1.7840,0.2639,38.55,93,91,294534
1.8231,0.2835,38.33,93,91,294538
1.7986,0.2737,38.49,93,91,294541
1.7937,0.2542,38.52,93,91,294544
1.7937,0.2688,38.52,93,91,294548
1.7791,0.2639,38.62,93,91,294551
1.8182,0.2737,38.40,93,91,294554
1.7986,0.2737,38.55,93,91,294557
1.7986,0.2639,38.49,93,91,294561
1.7937,0.2639,38.58,93,91,294564
1.8084,0.2590,38.58,93,91,294567
1.8426,0.2737,38.46,93,91,294572
1.8280,0.2639,38.55,93,91,294575
1.8573,0.2737,38.43,93,91,294578
1.8377,0.2688,37.83,93,91,294582
1.8328,0.2590,38.62,93,91,294585
1.8573,0.2688,38.55,93,91,294588
1.8524,0.2639,38.55,93,91,294592
1.8768,0.2688,38.43,93,91,294595
1.8475,0.2639,38.65,93,91,294598
1.8573,0.2688,38.58,93,91,294601
1.8866,0.2688,38.46,93,91,294605
1.8817,0.2688,38.62,93,91,294608
1.9355,0.2688,38.36,93,91,294611
1.9257,0.2688,38.46,93,91,294616
1.9208,0.2639,38.62,93,91,294619
1.9404,0.2688,38.58,93,91,294622
1.9306,0.2639,38.55,93,91,294626
1.9941,0.2737,38.30,93,91,294629
1.9697,0.2639,38.62,93,91,294632
1.9892,0.2590,38.55,93,91,294636
1.9990,0.2639,38.55,93,91,294639
1.9892,0.2639,38.62,93,91,294642
2.0626,0.2884,38.36,93,91,294645
1.9648,0.2639,38.58,93,91,294649
1.9501,0.2590,38.49,93,91,294652
1.9257,0.2590,38.58,93,91,294656
1.9062,0.2981,38.52,93,91,294660
1.9159,0.2786,38.49,93,91,294663
1.8768,0.2688,38.55,93,91,294666
1.8768,0.2639,38.40,93,91,294670
1.8573,0.2639,38.58,93,91,294673
1.8573,0.2639,38.62,93,91,294676
1.8817,0.2786,38.43,93,91,294680
1.8426,0.2639,38.58,93,91,294683
1.8573,0.2737,38.46,93,91,294686
1.8182,0.2590,38.52,93,91,294689
1.8182,0.2639,38.58,93,91,294693
1.8328,0.2786,38.46,93,91,294696
1.8084,0.2639,38.58,93,91,294700
1.8377,0.2639,38.40,93,91,294704
1.8133,0.2688,38.52,93,91,294707
1.8133,0.2639,38.58,93,91,294710
1.8133,0.2688,38.58,93,91,294714
1.7986,0.2737,38.55,93,91,294717
1.8280,0.2737,38.30,93,91,294720
1.7937,0.2639,38.58,93,91,294723
1.8035,0.2639,38.58,93,91,294727
1.8182,0.2737,38.52,93,91,294730
1.8035,0.2639,38.52,93,91,294733
1.8622,0.2737,38.27,93,91,294737
1.8524,0.2688,38.55,93,91,294740
1.8768,0.2933,38.58,93,91,294744
1.9306,0.2688,38.58,93,91,294748
1.9844,0.2639,38.55,93,91,294751
2.1261,0.2884,38.36,93,91,294754
2.2043,0.2688,38.52,93,91,294758
2.3412,0.2639,38.43,93,91,294761
2.5269,0.2639,38.58,93,91,294764
2.7468,0.2639,38.33,93,91,294767
3.0303,0.2981,38.43,93,91,294771
3.2111,0.2639,38.65,93,91,294774
3.3773,0.2639,38.58,93,91,294777
3.3187,0.2737,38.55,93,91,294781
3.1329,0.2639,38.58,93,91,294785
2.8592,0.2639,38.55,93,91,294788
2.5464,0.2493,38.58,93,91,294792
2.2923,0.2688,38.46,93,91,294795
2.0235,0.2493,38.58,93,91,294798
1.8524,0.2590,38.65,93,91,294802
1.7400,0.2737,38.46,93,91,294805
1.6227,0.2639,38.58,93,91,294808
1.5689,0.2639,38.40,93,91,294811
1.5054,0.2639,38.49,93,91,294815
1.4663,0.2639,38.55,93,91,294818
1.4712,0.3079,38.49,93,91,294821
1.4663,0.2639,38.58,93,91,294825
1.5298,0.2737,38.30,93,91,294829
1.5298,0.2688,38.52,93,91,294832
1.5640,0.2639,38.58,93,91,294836
1.5689,0.2639,38.58,93,91,294839
1.5982,0.2590,38.62,93,91,294842
1.6667,0.3079,38.27,93,91,294845
1.6373,0.2639,38.55,93,91,294849
1.6373,0.2590,38.52,93,91,294852
1.6373,0.2688,38.58,93,91,294855
1.6520,0.2639,38.65,93,91,294859
1.7107,0.2835,38.40,93,91,294862
1.6911,0.2688,38.52,93,91,294865
1.7009,0.2639,38.55,93,91,294870
1.7107,0.2493,38.55,93,91,294873
1.7155,0.2590,38.68,93,91,294876
1.7546,0.2981,38.40,93,91,294880
1.7400,0.2688,38.55,93,91,294883
1.7595,0.2688,38.40,93,91,294886
1.7449,0.2688,38.58,93,91,294889
1.7498,0.2639,38.58,93,91,294893
1.7644,0.2688,38.46,93,91,294896
1.7449,0.2737,38.55,93,91,294899
1.7791,0.2639,38.21,93,91,294903
1.7498,0.2933,38.55,93,91,294906
1.7498,0.2590,38.55,93,91,294909
1.7644,0.2688,38.49,93,91,294914
1.7595,0.2639,38.58,93,91,294917
1.8035,0.2688,38.33,93,91,294920
1.7840,0.2884,38.55,93,91,294924
1.8182,0.2639,38.58,93,91,294927
1.8280,0.2688,38.58,93,91,294930
1.8133,0.2493,38.58,93,91,294933
1.8719,0.2737,38.30,93,91,294937
1.8524,0.2688,38.49,93,91,294940
1.8768,0.2590,38.58,93,91,294943
1.8426,0.2688,38.71,93,91,294947
1.8280,0.2884,38.55,93,91,294950
1.8768,0.2688,38.33,93,91,294953
1.8377,0.2688,38.46,93,91,294959
1.8133,0.2688,38.52,93,91,294962
1.8524,0.2639,38.43,93,91,294966
1.8426,0.2639,38.52,93,91,294969
1.8524,0.2639,38.58,93,91,294972
1.8524,0.2639,38.52,93,91,294976
1.8328,0.2590,38.58,93,91,294979
1.8719,0.2639,38.43,93,91,294982
1.8622,0.2639,38.58,93,91,294985
1.8817,0.2639,38.62,93,91,294989
1.9062,0.2688,38.49,93,91,294992
1.8768,0.2835,38.58,93,91,294995
1.9062,0.2737,38.33,93,91,295000
1.8622,0.2639,38.46,93,91,295003
1.8524,0.2639,38.55,93,91,295006
1.8866,0.2688,38.58,93,91,295010
1.8768,0.2639,38.55,93,91,295013
1.9355,0.2737,38.27,93,91,295016
1.8915,0.2639,38.46,93,91,295020
1.8866,0.2542,38.68,93,91,295023
1.9062,0.2639,38.58,93,91,295026
1.9355,0.2590,38.52,93,91,295029
2.0137,0.2981,38.36,93,91,295033
1.9795,0.2639,38.55,93,91,295036
1.9892,0.2590,38.46,93,91,295040
1.9844,0.2639,38.55,93,91,295044
1.9795,0.2590,38.58,93,91,295047
2.0137,0.2981,38.55,93,91,295050
1.9648,0.2493,38.55,93,91,295054
1.9648,0.2639,38.65,93,91,295057
1.9208,0.2639,38.62,93,91,295060
1.9257,0.2590,38.55,93,91,295064
1.9599,0.2933,38.43,93,91,295067
1.9501,0.2639,38.55,93,91,295070
1.9892,0.2688,38.46,93,91,295073
1.9892,0.2639,38.55,93,91,295077
1.9599,0.2590,38.58,93,91,295080
1.9599,0.2933,38.46,93,91,295084
1.9355,0.2590,38.62,93,91,295088
1.9501,0.2639,38.58,93,91,295091
1.9257,0.2639,38.49,93,91,295094
1.9257,0.2639,38.58,93,91,295098
1.9306,0.2688,38.55,93,91,295101
1.9159,0.2639,38.55,93,91,295104
1.9501,0.2688,38.33,93,91,295108
1.9208,0.2590,38.55,93,91,295111
1.9208,0.2590,38.58,93,91,295114
1.9257,0.2688,38.49,93,91,295117
1.8915,0.2639,38.62,93,91,295121
1.9404,0.2737,38.27,93,91,295124
1.9062,0.2737,38.46,93,91,295128
1.8915,0.2590,38.55,93,91,295132
1.9404,0.2590,38.55,93,91,295135
1.9062,0.2590,38.58,93,91,295138
1.9599,0.2786,38.36,93,91,295142
1.9501,0.2688,38.49,93,91,295145
1.9159,0.2590,38.46,93,91,295148
1.9208,0.2639,38.52,93,91,295152
1.9404,0.2590,38.58,93,91,295155
1.9648,0.2688,38.43,93,91,295158
1.9257,0.2688,38.62,93,91,295161
1.9648,0.2688,38.46,93,91,295165
1.8964,0.2639,38.65,93,91,295169
1.8768,0.2590,38.58,93,91,295172
1.8866,0.2639,38.52,93,91,295176
1.8817,0.2639,38.52,93,91,295179
1.9159,0.2737,38.46,93,91,295182
1.8964,0.2590,38.68,93,91,295186
1.9062,0.2835,38.62,93,91,295189
1.9257,0.2737,38.46,93,91,295192
1.8964,0.2639,38.58,93,91,295196
1.9306,0.2639,38.40,93,91,295199
1.9257,0.2639,38.46,93,91,295202
1.9257,0.2590,38.58,93,91,295205
1.9404,0.2737,38.52,93,91,295209
1.9013,0.2590,38.55,93,91,295213
1.9501,0.2688,38.33,93,91,295216
1.9208,0.2688,38.49,93,91,295220
1.9355,0.2639,38.55,93,91,295223
1.9355,0.2639,38.58,93,91,295226
1.9355,0.2688,38.49,93,91,295230
2.0186,0.2737,38.27,93,91,295233
1.9404,0.2590,38.49,93,91,295236
1.9355,0.2542,38.55,93,91,295239
1.9404,0.2639,38.55,93,91,295243
1.9550,0.2786,38.62,93,91,295246
2.0332,0.2786,38.40,93,91,295249
2.0283,0.2688,38.55,93,91,295254
2.0430,0.2590,38.49,93,91,295257
2.0332,0.2639,38.55,93,91,295260
2.0381,0.2590,38.55,93,91,295264
2.0723,0.2688,38.36,93,91,295267
2.0332,0.2688,38.55,93,91,295270
2.0381,0.2639,38.43,93,91,295273
1.9892,0.2590,37.93,93,91,295277
1.9599,0.2639,38.55,93,91,295280
1.9697,0.2688,38.52,93,91,295283
1.9355,0.2590,38.52,93,91,295287
1.9648,0.2737,38.46,93,91,295290
1.9404,0.2639,38.58,93,91,295293
1.9306,0.2590,38.55,93,91,295298
1.9159,0.2639,38.55,93,91,295301
1.8817,0.2639,38.58,93,91,295304
1.8817,0.2639,38.33,93,91,295307
1.8426,0.2639,38.58,93,91,295311
1.8622,0.2590,38.36,93,91,295314
1.8915,0.2639,38.49,93,91,295317
1.8866,0.2639,38.02,93,91,295321
1.9306,0.2688,38.33,93,91,295324
1.8915,0.2639,38.46,93,91,295327
1.8573,0.2590,38.58,93,91,295331
1.8524,0.2688,38.52,93,91,295334
1.8426,0.2639,38.58,93,91,295337
1.9062,0.2737,38.30,93,91,295342
1.8671,0.2835,38.49,93,91,295345
1.8475,0.2493,38.55,93,91,295348
1.8573,0.2590,38.68,93,91,295351
1.8671,0.2639,38.58,93,91,295355
1.9257,0.2786,38.40,93,91,295358
1.8964,0.2590,38.55,93,91,295361
1.9550,0.2590,38.46,93,91,295365
1.9501,0.2639,38.55,93,91,295368
2.0186,0.2493,38.58,93,91,295371
2.0821,0.2688,38.49,93,91,295375
2.1701,0.2639,38.65,93,91,295378
2.3705,0.2639,38.49,93,91,295382
2.5806,0.2639,38.58,93,91,295386
2.8495,0.2590,38.49,93,91,295389
3.1672,0.2981,38.43,93,91,295392
3.3431,0.2639,38.65,93,91,295395
3.4848,0.2688,38.43,93,91,295399
3.3284,0.2493,38.52,93,91,295402
3.0694,0.2590,38.58,93,91,295405
2.7664,0.2737,38.46,93,91,295409
2.4389,0.2542,38.55,93,91,295412
2.1848,0.2639,38.33,93,91,295415
1.9159,0.2639,38.52,93,91,295419
1.7253,0.2590,38.55,93,91,295422
1.5885,0.2639,38.58,93,91,295426
1.4809,0.2590,38.62,93,91,295429
1.4663,0.2737,38.30,93,91,295433
1.4174,0.2590,38.65,93,91,295436
1.4174,0.2493,38.58,93,91,295439
1.4418,0.2688,38.55,93,91,295443
1.5054,0.2639,38.58,93,91,295446
1.5543,0.2786,38.30,93,91,295449
1.5347,0.2639,38.55,93,91,295453
1.5200,0.2639,38.55,93,91,295456
1.5103,0.2639,38.55,93,91,295459
1.5054,0.2590,38.46,93,91,295463
1.5689,0.2737,38.43,93,91,295467
1.5738,0.2688,38.43,93,91,295470
1.6080,0.2737,38.40,93,91,295473
1.6373,0.2639,38.58,93,91,295477
1.6520,0.2590,38.58,93,91,295480
1.6960,0.2688,38.43,93,91,295483
1.7107,0.2590,38.55,93,91,295487
1.7449,0.2639,38.43,93,91,295490
1.7253,0.2639,38.58,93,91,295493
1.7204,0.2590,38.62,93,91,295497
1.7155,0.2639,38.49,93,91,295500
1.7204,0.2639,38.58,93,91,295503
1.7546,0.2639,38.46,93,91,295506
1.7204,0.2933,38.58,93,91,295511
1.7302,0.2493,38.58,93,91,295514
1.7498,0.2688,38.49,93,91,295517
1.7155,0.2639,38.58,93,91,295521
1.7302,0.2688,38.40,93,91,295524
1.7155,0.2639,38.46,93,91,295527
1.7595,0.2639,38.58,93,91,295531
1.7889,0.2688,38.49,93,91,295534
1.7840,0.2639,38.55,93,91,295537
1.8328,0.2737,38.33,93,91,295541
1.7937,0.2639,38.46,93,91,295544
1.8084,0.2639,38.58,93,91,295547
1.8231,0.2639,38.55,93,91,295550
1.8035,0.2639,38.55,93,91,295555
1.8328,0.2786,38.36,93,91,295558
1.7840,0.3128,38.55,93,91,295561
1.8035,0.2542,38.52,93,91,295565
1.8280,0.2639,38.74,94,91,295568
1.8231,0.2639,38.62,94,91,295573
1.8475,0.2590,38.58,94,91,295576
1.8817,0.2737,38.46,94,91,295579
1.8622,0.2688,38.55,94,91,295583
1.8866,0.2737,38.43,94,91,295586
1.8671,0.2590,38.68,94,91,295589
1.8524,0.2542,38.58,94,91,295593
1.8573,0.2688,38.52,94,91,295597
1.8426,0.2639,38.58,94,91,295600
1.8866,0.2493,38.40,94,91,295604
1.8426,0.2639,38.49,94,91,295607
1.8084,0.2590,38.55,94,91,295610
1.8035,0.2737,38.55,94,91,295613
1.8084,0.2639,38.58,94,91,295617
1.8768,0.2737,38.36,94,91,295620
1.8524,0.2639,38.55,94,91,295623
1.8719,0.2590,38.62,94,91,295627
1.8817,0.2688,38.52,94,91,295630
1.8768,0.2639,38.58,94,91,295633
1.9404,0.2835,38.33,94,91,295638
1.9110,0.2688,38.52,94,91,295641
1.9208,0.2590,38.52,94,91,295644
1.9306,0.2688,38.58,94,91,295647
1.9355,0.2639,38.58,94,91,295651
1.9648,0.2737,38.40,94,91,295654
1.9062,0.2590,38.55,94,91,295657
1.9110,0.2493,38.46,94,91,295661
1.8719,0.2639,38.58,94,91,295664
1.8719,0.2590,38.62,94,91,295667
1.9062,0.2688,38.46,94,91,295671
1.8866,0.2639,38.62,94,91,295674
1.9110,0.2688,38.46,94,91,295677
1.8817,0.2639,38.62,94,91,295682
1.8866,0.2590,38.58,94,91,295685
1.8915,0.2639,38.52,94,91,295688
1.8866,0.2639,38.55,94,91,295691
1.9062,0.2639,38.46,94,91,295695
1.8671,0.2590,38.33,94,91,295698
1.8573,0.2542,38.58,94,91,295701
1.8671,0.2737,38.46,94,91,295705
1.8573,0.2639,38.62,94,91,295708
1.9013,0.2737,38.33,94,91,295711
1.8768,0.2688,37.77,94,91,295715
1.8573,0.2786,38.62,94,91,295718
1.8719,0.2688,38.58,94,91,295721
1.8622,0.2688,38.58,94,91,295726
1.9062,0.2737,38.43,94,91,295729
1.8524,0.2835,38.43,94,91,295732
1.8231,0.2493,38.58,94,91,295735
1.8084,0.2639,38.58,94,91,295739
1.7937,0.2737,38.58,94,91,295742
1.8377,0.2786,38.40,94,91,295745
1.7889,0.2639,38.62,94,91,295749
1.7889,0.2933,38.49,94,91,295752
1.7889,0.2639,38.65,94,91,295755
1.7889,0.2639,38.58,94,91,295759
1.8182,0.2786,38.49,94,91,295762
1.8035,0.2639,38.52,94,91,295766
1.8328,0.2493,38.43,94,91,295770
1.8280,0.2639,38.55,94,91,295773
1.8377,0.2639,38.55,94,91,295776
1.8573,0.2688,38.43,94,91,295779
1.8035,0.2590,38.55,94,91,295783
1.7986,0.2688,38.46,94,91,295786
1.7546,0.2590,38.52,94,91,295789
1.7498,0.2933,38.55,94,91,295793
1.7889,0.2688,38.33,94,91,295796
1.8035,0.2590,38.55,94,91,295799
1.8768,0.2493,38.36,94,91,295803
1.8377,0.2639,38.52,94,91,295806
1.8377,0.2688,38.55,94,91,295810
1.8426,0.2639,38.55,94,91,295814
1.8182,0.2639,38.58,94,91,295817
1.8426,0.2737,38.30,94,91,295820
1.7889,0.2590,38.55,94,91,295823
1.7937,0.2688,38.62,94,91,295827
1.8133,0.2688,38.52,94,91,295830
1.8133,0.2688,38.58,94,91,295833
1.8817,0.2688,38.33,94,91,295837
1.8426,0.2688,38.36,94,91,295840
1.8328,0.2542,38.55,94,91,295843
1.8377,0.2639,38.77,94,91,295847
1.8377,0.2590,38.58,94,91,295851
1.9013,0.2688,38.40,94,91,295854
1.8768,0.2688,38.58,94,91,295858
1.8866,0.2590,38.55,94,91,295861
1.8768,0.2590,38.55,94,91,295864
1.8915,0.2590,38.58,94,91,295867
1.9306,0.2786,38.43,94,91,295871
1.9159,0.2639,38.55,94,91,295874
1.9404,0.2688,38.40,94,91,295877
1.9159,0.2542,38.58,94,91,295881
1.9062,0.2688,38.58,94,91,295884
1.9159,0.2933,38.55,94,91,295887
1.9013,0.2639,38.55,94,91,295891
1.8964,0.2639,38.46,94,91,295895
1.8475,0.2639,38.55,94,91,295898
1.8280,0.2590,38.46,94,91,295902
1.8328,0.2737,38.49,94,91,295905
1.8035,0.2639,38.55,94,91,295908
1.8328,0.2933,38.30,94,91,295911
1.7986,0.2493,38.46,94,91,295915
1.7889,0.2639,38.58,94,91,295918
1.7937,0.2737,38.52,94,91,295921
1.7644,0.2590,38.55,94,91,295925
1.7986,0.2737,38.33,94,91,295928
1.7546,0.2639,38.46,94,91,295931
1.7498,0.2590,38.65,94,91,295936
1.7449,0.2639,38.55,94,91,295939
1.7351,0.2590,38.58,94,91,295942
1.7937,0.2884,38.40,94,91,295946
1.7449,0.2639,38.58,94,91,295949
1.7498,0.2590,38.55,94,91,295952
1.7449,0.2590,38.58,94,91,295955
1.7351,0.2590,37.96,94,91,295959
1.7498,0.2737,38.49,94,91,295962
1.7155,0.2639,38.58,94,91,295965
1.7302,0.2639,38.46,94,91,295969
1.7253,0.2639,38.62,94,91,295972
1.7449,0.2590,38.71,94,91,295975
1.8084,0.2737,38.43,94,91,295980
1.8231,0.2639,38.62,94,91,295983
1.9013,0.3079,38.46,94,91,295986
1.9599,0.2590,38.55,94,91,295990
2.0968,0.2590,38.58,94,91,295993
2.3021,0.2737,38.46,94,91,295996
2.5122,0.2639,38.55,94,91,295999
2.8055,0.2639,38.40,94,91,296003
3.0205,0.2639,38.49,94,91,296006
3.2111,0.2590,38.58,94,91,296009
3.2942,0.2688,38.52,94,91,296013
3.1574,0.2639,38.65,94,91,296016
2.9326,0.3079,38.33,94,91,296019
2.5318,0.2590,38.55,94,91,296024
2.2141,0.2786,38.55,94,91,296027
1.9501,0.2688,38.55,94,91,296030
1.7107,0.2933,38.55,94,91,296034
1.5885,0.2786,38.30,94,91,296037
1.4321,0.2639,38.52,94,91,296040
1.3441,0.2590,38.55,94,91,296043
1.2952,0.2639,38.77,94,91,296047
1.2659,0.2542,38.58,94,91,296050
1.3001,0.2737,38.36,94,91,296053
1.2903,0.2737,38.55,94,91,296057
1.3148,0.2639,38.49,94,91,296060
1.3343,0.2639,38.55,94,91,296064
1.3490,0.2639,38.62,94,91,296068
1.3832,0.2688,38.46,94,91,296071
1.3734,0.2688,38.62,94,91,296074
1.4174,0.2493,38.43,94,91,296078
1.4174,0.2639,38.58,94,91,296081
1.4467,0.2493,38.58,94,91,296084
1.4761,0.2639,38.65,94,91,296087
1.4809,0.2542,38.55,94,91,296091
1.5249,0.2590,38.43,94,91,296094
1.5054,0.2590,38.58,94,91,296097
1.5152,0.2639,38.65,94,91,296101
1.5347,0.2688,38.40,94,91,296104
1.5249,0.2493,38.58,94,91,296108
1.5494,0.2688,38.36,94,91,296112
1.5396,0.2639,38.43,94,91,296115
1.5396,0.2639,38.58,94,91,296118
1.5640,0.2688,38.55,94,91,296122
1.5543,0.2639,38.62,94,91,296125
1.5982,0.2688,38.30,94,91,296128
1.5591,0.2639,38.46,94,91,296131
1.5738,0.2590,38.58,94,91,296135
1.5738,0.2639,38.58,94,91,296138
1.5836,0.2590,38.77,94,91,296141
1.6422,0.2884,38.33,94,91,296145
1.6080,0.2639,38.55,94,91,296148
1.6227,0.2590,38.49,94,91,296152
1.6618,0.2639,38.58,94,91,296156
1.6325,0.2639,38.58,94,91,296159
1.6716,0.2688,38.46,94,91,296162
1.6471,0.2639,38.58,94,91,296166
1.6569,0.2639,38.49,94,91,296169
1.6373,0.2639,38.55,94,91,296172
1.6422,0.2639,38.55,94,91,296175
1.6813,0.2688,38.43,94,91,296179
1.6911,0.2688,37.93,94,91,296184
1.6764,0.2542,38.55,94,91,296187
1.7204,0.2688,38.36,94,91,296190
1.6960,0.2737,38.52,94,91,296194
1.7009,0.2590,38.58,94,91,296198
1.7400,0.2639,38.55,94,91,296201
1.7253,0.2639,38.55,94,91,296204
1.7742,0.3079,38.30,94,91,296208
1.7253,0.2639,38.55,94,91,296211
1.7302,0.2590,38.58,94,91,296214
1.7253,0.2688,38.58,94,91,296218
1.7204,0.2639,38.62,94,91,296221
1.7644,0.2884,38.36,94,91,296224
1.7155,0.2688,38.52,94,91,296227
1.7009,0.2590,38.68,94,91,296231
1.6862,0.2590,38.58,94,91,296235
1.6813,0.2639,38.58,94,91,296238
1.7155,0.2737,38.30,94,91,296242
1.7009,0.2493,38.55,94,91,296245
1.7155,0.2639,38.46,94,91,296248
1.7009,0.2542,38.68,94,91,296252
1.7595,0.2542,38.55,94,91,296255
1.7742,0.2688,38.49,94,91,296258
1.7889,0.2639,38.58,94,91,296262
1.8182,0.2688,38.46,94,91,296265
1.7937,0.2639,38.62,94,91,296268
1.8084,0.2493,38.58,94,91,296271
1.8182,0.2639,38.40,94,91,296275
1.8084,0.3128,38.55,94,91,296279
1.8182,0.2493,38.40,94,91,296282
1.7986,0.2639,38.62,94,91,296286
1.8231,0.2590,38.58,94,91,296289
1.8133,0.2688,37.80,94,91,296292
1.7937,0.2639,38.58,94,91,296296
1.8231,0.2688,38.33,94,91,296299
1.8035,0.2688,38.43,94,91,296302
1.7937,0.2639,38.55,94,91,296306
1.8133,0.2688,38.74,94,91,296309
1.7986,0.2639,38.65,94,91,296312
1.8622,0.2737,38.27,94,91,296315
1.8084,0.2737,38.46,94,91,296320
1.7889,0.2493,38.55,94,91,296323
1.7937,0.2639,38.55,94,91,296326
1.7791,0.2639,38.58,94,91,296330
1.8280,0.2786,38.43,94,91,296333
1.7742,0.2639,38.62,94,91,296336
1.8035,0.2639,38.46,94,91,296340
1.7595,0.2639,38.52,94,91,296343
1.7595,0.2639,38.58,94,91,296346
1.7889,0.2688,38.52,94,91,296350
1.7791,0.2688,38.52,94,91,296353
1.7937,0.2590,38.43,94,91,296356
1.7742,0.2639,38.77,94,91,296359
1.7791,0.2688,38.58,94,91,296364
1.8035,0.2688,38.43,94,91,296367
1.7742,0.2639,38.55,94,91,296370
1.7937,0.2639,38.43,94,91,296374
1.7546,0.2590,38.58,94,91,296377
1.7498,0.2590,38.55,94,91,296380
1.7644,0.2688,38.43,94,91,296384
1.7498,0.2639,38.55,94,91,296387
1.8133,0.2590,38.36,94,91,296390
1.7693,0.2639,38.71,94,91,296394
1.7546,0.2639,38.55,94,91,296397
1.7449,0.2688,38.55,94,91,296400
1.7253,0.2639,38.68,94,91,296403
1.7644,0.2737,38.30,94,91,296408
1.7302,0.2639,38.55,94,91,296411
