1.8817,0.2297,38.62,95,93,130754
1.9306,0.2493,38.49,95,93,130757
1.9013,0.2395,38.55,95,93,130761
1.9013,0.2346,38.55,95,93,130764
1.8817,0.2688,38.62,95,93,130767
1.8768,0.2346,38.68,95,93,130771
1.9013,0.2590,38.52,95,93,130775
1.9062,0.2346,38.58,95,93,130778
1.8915,0.2297,38.49,95,93,130781
1.8866,0.2346,38.58,95,93,130785
1.8524,0.2346,38.74,95,93,130788
1.8768,0.2542,38.43,95,93,130791
1.8426,0.2346,38.58,95,93,130795
1.8573,0.2346,38.49,95,93,130798
1.8231,0.2346,38.55,95,93,130801
1.8182,0.2346,38.62,95,93,130805
1.8182,0.2444,38.46,95,93,130808
1.7889,0.2444,38.65,95,93,130811
1.8133,0.2395,38.33,95,93,130816
1.7986,0.2395,38.55,95,93,130819
1.7644,0.2297,38.62,95,93,130822
1.7693,0.2395,38.71,95,93,130825
1.7498,0.2542,38.62,95,93,130829
1.7986,0.2444,38.33,95,93,130832
1.7595,0.2346,38.58,95,93,130835
1.7595,0.2346,38.62,95,93,130839
1.7644,0.2395,38.65,95,93,130842
1.7498,0.2346,38.62,95,93,130845
1.8035,0.2542,38.40,95,93,130849
1.7644,0.2444,38.52,95,93,130852
1.7742,0.2346,38.52,95,93,130855
1.7449,0.2346,38.58,95,93,130860
1.7449,0.2346,38.58,95,93,130863
1.7693,0.2297,38.43,95,93,130866
1.7449,0.2444,38.62,95,93,130869
1.7595,0.2444,38.49,95,93,130873
1.7449,0.2346,38.58,95,93,130876
1.7498,0.2346,38.62,95,93,130879
1.7840,0.2444,38.55,95,93,130883
1.7644,0.2395,38.46,95,93,130886
1.7889,0.2444,38.49,95,93,130889
1.7644,0.2297,38.62,95,93,130893
1.7791,0.2346,38.55,95,93,130896
1.7986,0.2346,38.55,95,93,130899
1.7986,0.2346,38.65,95,93,130904
1.8231,0.2346,38.40,95,93,130907
1.7986,0.2346,38.71,95,93,130910
1.8035,0.2297,38.62,95,93,130913
1.8475,0.2395,38.49,95,93,130917
1.8035,0.2346,38.65,95,93,130920
1.8475,0.2786,38.33,95,93,130923
1.8231,0.2395,38.46,95,93,130927
1.8133,0.2346,38.62,95,93,130930
1.8328,0.2395,38.58,95,93,130933
1.8280,0.2297,38.62,95,93,130937
1.8817,0.2786,38.36,95,93,130940
1.8866,0.2395,38.46,95,93,130946
1.8671,0.2297,38.58,95,93,130949
1.8915,0.2346,38.46,95,93,130952
1.8768,0.2395,38.58,95,93,130956
1.8817,0.2297,38.33,95,93,130959
1.9013,0.2346,38.52,95,93,130962
1.9062,0.2346,38.55,95,93,130965
1.9453,0.2395,38.49,95,93,130969
1.9355,0.2346,38.58,95,93,130972
1.9257,0.2346,38.65,95,93,130975
1.9453,0.2444,38.43,95,93,130979
1.9062,0.2346,38.58,95,93,130982
1.9257,0.2395,38.52,95,93,130985
1.8915,0.2346,38.55,95,93,130990
1.8719,0.2346,38.62,95,93,130993
1.8719,0.2444,38.46,95,93,130996
1.8524,0.2395,38.62,95,93,131000
1.8866,0.2444,38.33,95,93,131003
1.8524,0.2395,38.52,95,93,131006
1.8377,0.2346,38.62,95,93,131009
1.8475,0.2395,38.55,95,93,131013
1.8328,0.2346,38.62,95,93,131016
1.8964,0.2395,38.33,95,93,131019
1.8377,0.2346,38.49,95,93,131023
1.8328,0.2346,38.52,95,93,131026
1.8377,0.2297,38.58,95,93,131030
1.8280,0.2639,38.58,95,93,131034
1.8671,0.2493,38.46,95,93,131037
1.8377,0.2395,38.62,95,93,131040
1.8377,0.2395,38.49,95,93,131044
1.8328,0.2346,38.65,95,93,131047
1.8377,0.2346,38.62,95,93,131050
1.8817,0.2297,38.43,95,93,131053
1.8671,0.2395,38.55,95,93,131057
1.8768,0.2395,38.46,95,93,131060
1.8475,0.2346,38.46,95,93,131063
1.8622,0.2395,38.65,95,93,131067
1.8915,0.2395,38.49,95,93,131070
1.8915,0.2346,38.52,95,93,131074
1.9550,0.2346,38.46,95,93,131078
1.9697,0.2297,38.58,95,93,131081
2.0381,0.2444,38.58,95,93,131084
2.1457,0.2346,38.49,95,93,131088
2.2532,0.2297,38.58,95,93,131091
2.4633,0.2395,38.55,95,93,131094
2.6344,0.2346,38.62,95,93,131097
2.8690,0.2297,38.65,95,93,131101
3.1281,0.2395,38.55,95,93,131104
3.2747,0.2346,38.62,95,93,131107
3.3920,0.2444,38.49,95,93,131111
3.2014,0.2346,38.52,95,93,131115
2.9032,0.2346,38.55,95,93,131118
2.5953,0.2444,38.62,95,93,131122
2.2776,0.2346,38.62,95,93,131125
2.0968,0.2542,38.43,95,93,131128
1.8426,0.2493,38.49,95,93,131132
1.6764,0.2346,38.55,95,93,131135
1.5640,0.2346,38.52,95,93,131138
1.4858,0.2346,38.58,95,93,131141
1.4712,0.2444,38.46,95,93,131145
1.4223,0.2395,38.52,95,93,131148
1.4174,0.2346,38.49,95,93,131151
1.4076,0.2297,38.58,95,93,131155
1.4174,0.2346,38.65,95,93,131159
1.4663,0.2493,38.55,95,93,131162
1.4565,0.2346,38.65,95,93,131166
1.4907,0.2444,38.49,95,93,131169
1.4907,0.2346,38.62,95,93,131172
1.5103,0.2297,38.62,95,93,131175
1.5494,0.2688,38.49,95,93,131179
1.5494,0.2346,38.58,95,93,131182
1.5836,0.2346,38.46,95,93,131185
1.5885,0.2346,38.52,95,93,131189
1.5885,0.2297,38.58,95,93,131192
1.6178,0.2395,38.46,95,93,131195
1.6129,0.2346,38.62,95,93,131200
1.6618,0.2395,38.36,95,93,131203
1.6471,0.2395,38.55,95,93,131206
1.6520,0.2346,38.62,95,93,131210
1.6764,0.2395,38.55,95,93,131213
1.6667,0.2346,38.62,95,93,131216
1.7107,0.2444,38.33,95,93,131219
1.6764,0.2346,38.52,95,93,131223
1.6764,0.2346,38.62,95,93,131226
1.6764,0.2395,38.58,95,93,131229
1.6813,0.2346,38.62,95,93,131233
1.7351,0.2542,38.40,95,93,131236
1.7107,0.2444,38.55,95,93,131239
1.7107,0.2346,38.52,95,93,131244
1.7009,0.2444,38.58,95,93,131247
1.7253,0.2346,38.62,95,93,131250
1.7449,0.2444,38.43,95,93,131254
1.7302,0.2444,38.55,95,93,131257
1.7351,0.2297,38.49,95,93,131260
1.7155,0.2346,38.65,95,93,131263
1.7253,0.2542,38.58,95,93,131267
1.7449,0.2297,38.52,95,93,131270
1.7107,0.2395,38.58,95,93,131273
1.7204,0.2444,38.49,95,93,131277
1.6813,0.2346,38.58,95,93,131280
1.6716,0.2346,38.55,95,93,131283
1.6716,0.2395,38.52,95,93,131288
1.6569,0.2346,38.71,95,93,131291
1.6813,0.2444,38.40,95,93,131294
1.6667,0.2346,38.58,95,93,131298
1.6862,0.2346,38.62,95,93,131301
1.7204,0.2444,38.55,95,93,131304
1.7058,0.2346,38.52,95,93,131307
1.7498,0.2639,38.40,95,93,131311
1.7351,0.2395,38.55,95,93,131314
1.7155,0.2346,38.74,95,93,131317
1.7302,0.2444,38.55,95,93,131321
1.7302,0.2346,38.58,95,93,131324
1.7937,0.2493,38.30,95,93,131328
1.7595,0.2395,38.49,95,93,131332
1.7400,0.2297,38.58,95,93,131335
1.7400,0.2639,38.58,95,93,131338
1.7400,0.2346,38.58,95,93,131342
1.7986,0.2493,38.43,95,93,131345
1.7742,0.2346,38.55,95,93,131348
1.7986,0.2346,38.49,95,93,131351
1.7840,0.2395,38.62,95,93,131355
1.7986,0.2346,38.62,95,93,131358
1.8182,0.2444,38.52,95,93,131361
1.8084,0.2395,38.71,95,93,131365
1.8426,0.2444,38.46,95,93,131368
1.8280,0.2395,38.65,95,93,131372
1.8426,0.2639,38.62,95,93,131376
1.8817,0.2444,38.49,95,93,131379
1.8671,0.2346,38.68,95,93,131382
1.9110,0.2297,38.46,95,93,131386
1.8915,0.2346,38.52,95,93,131389
1.8915,0.2444,38.58,95,93,131392
1.9062,0.2493,38.46,95,93,131395
1.8719,0.2444,38.62,95,93,131399
1.8964,0.2395,38.36,95,93,131402
1.8671,0.2395,38.58,95,93,131405
1.8524,0.2346,38.62,95,93,131409
1.8524,0.2395,38.58,95,93,131412
1.8280,0.2346,38.58,95,93,131416
1.8768,0.2395,38.33,95,93,131420
1.8328,0.2346,38.52,95,93,131423
1.8377,0.2395,38.62,95,93,131426
1.8475,0.2297,38.58,95,93,131430
1.8426,0.2444,38.68,95,93,131433
1.9013,0.2542,38.40,95,93,131436
1.8622,0.2444,38.52,95,93,131439
1.8475,0.2493,38.55,95,93,131443
1.8475,0.2395,38.58,95,93,131446
1.8475,0.2346,38.62,95,93,131449
1.8768,0.2444,38.43,95,93,131453
1.8475,0.2395,38.52,95,93,131457
1.8475,0.2346,38.46,95,93,131460
1.8280,0.2346,38.62,95,93,131464
1.8280,0.2346,38.81,95,93,131467
1.8475,0.2493,38.49,95,93,131470
1.8328,0.2395,38.58,95,93,131474
1.8671,0.2395,38.49,95,93,131477
1.8328,0.2444,38.62,95,93,131480
1.8182,0.2297,38.62,95,93,131483
1.8182,0.2493,38.52,95,93,131487
1.8084,0.2346,38.62,95,93,131490
1.8280,0.2395,38.43,95,93,131493
1.8035,0.2346,38.68,95,93,131497
1.8084,0.2346,38.62,95,93,131501
1.8182,0.2493,38.52,95,93,131504
1.7840,0.2346,38.62,95,93,131508
1.8182,0.2444,38.40,95,93,131511
1.7937,0.2444,38.55,95,93,131514
1.7693,0.2346,38.62,95,93,131518
1.7840,0.2346,38.58,95,93,131521
1.7693,0.2346,38.58,95,93,131524
1.8182,0.2493,38.30,95,93,131527
1.7840,0.2542,38.49,95,93,131531
1.7644,0.2395,38.58,95,93,131534
1.7546,0.2395,37.80,95,93,131537
1.7400,0.2346,38.62,95,93,131542
1.7840,0.2590,38.43,95,93,131545
1.7595,0.2444,38.55,95,93,131548
1.7644,0.2346,38.43,95,93,131552
1.7644,0.2346,38.58,95,93,131555
1.7889,0.2346,38.62,95,93,131560
1.7889,0.2346,38.58,95,93,131563
1.8182,0.2542,38.49,95,93,131566
1.7937,0.2346,38.68,95,93,131570
1.8133,0.2395,38.40,95,93,131573
1.8035,0.2346,38.49,95,93,131576
1.8035,0.2346,38.62,95,93,131579
1.8328,0.2297,38.49,95,93,131584
1.8328,0.2346,38.58,95,93,131587
1.8964,0.2444,38.33,95,93,131590
1.8817,0.2346,38.55,95,93,131594
1.8866,0.2346,38.58,95,93,131597
1.9062,0.2444,38.58,95,93,131600
1.8915,0.2346,38.62,95,93,131604
1.9501,0.2493,38.36,95,93,131607
1.9013,0.2346,38.52,95,93,131610
1.8768,0.2297,38.58,95,93,131614
1.8475,0.2444,38.58,95,93,131617
1.8182,0.2297,38.62,95,93,131620
1.8475,0.2590,38.46,95,93,131623
1.8084,0.2297,38.55,95,93,131628
1.8084,0.2346,38.65,95,93,131631
1.7986,0.2346,38.58,95,93,131634
1.8035,0.2346,38.58,95,93,131638
1.8377,0.2444,38.40,95,93,131641
1.8035,0.2297,38.58,95,93,131644
1.8084,0.2395,38.46,95,93,131648
1.7693,0.2444,38.58,95,93,131651
1.7840,0.2346,38.62,95,93,131654
1.7840,0.2444,38.55,95,93,131658
1.7546,0.2395,38.62,95,93,131661
1.8084,0.2395,38.49,95,93,131664
1.7546,0.2297,38.58,95,93,131667
1.7693,0.2346,38.49,95,93,131672
1.7840,0.2346,38.49,95,93,131675
1.7595,0.2297,38.62,95,93,131678
1.7742,0.2395,38.33,95,93,131682
1.7351,0.2297,38.62,95,93,131685
1.7400,0.2346,38.58,95,93,131688
1.7693,0.2444,38.52,95,93,131692
1.7644,0.2346,38.81,95,93,131695
1.8475,0.2395,38.33,95,93,131698
1.8133,0.2395,38.49,95,93,131701
1.8426,0.2346,38.62,95,93,131705
1.9062,0.2395,38.58,95,93,131708
1.9892,0.2346,38.65,95,93,131712
2.1896,0.2542,38.36,95,93,131716
2.3460,0.2444,38.55,95,93,131719
2.5758,0.2639,38.55,95,93,131722
2.8348,0.2395,38.58,95,93,131726
3.0792,0.2346,38.74,95,93,131729
3.3089,0.2737,38.46,95,93,131732
3.2893,0.2395,38.55,95,93,131736
3.1427,0.2395,38.49,95,93,131739
2.8201,0.2346,38.62,95,93,131742
2.4976,0.2346,38.68,95,93,131746
2.2190,0.2395,38.68,95,93,131749
1.9599,0.2395,38.58,95,93,131752
1.7546,0.2297,38.46,95,93,131756
1.5738,0.2395,38.58,95,93,131760
1.4516,0.2297,38.62,95,93,131763
1.3930,0.2639,38.49,95,93,131766
1.3294,0.2395,38.58,95,93,131770
1.3245,0.2395,38.40,95,93,131773
1.3099,0.2395,38.52,95,93,131776
1.3294,0.2297,38.62,95,93,131780
1.3685,0.2639,38.55,95,93,131783
1.3783,0.2346,38.62,95,93,131786
1.4370,0.2444,38.36,95,93,131790
1.4761,0.2395,38.52,95,93,131793
1.4663,0.2297,38.62,95,93,131796
1.4956,0.2395,38.58,95,93,131800
1.5054,0.2346,38.62,95,93,131804
1.5494,0.2297,38.30,95,93,131807
1.5298,0.2444,38.55,95,93,131810
1.5445,0.2346,38.58,95,93,131814
1.5689,0.2395,38.58,95,93,131817
1.5934,0.2346,38.62,95,93,131820
1.6569,0.2542,38.43,95,93,131824
1.6276,0.2395,38.55,95,93,131827
1.6471,0.2346,38.52,95,93,131830
1.6276,0.2542,38.62,95,93,131834
1.6276,0.2297,38.62,95,93,131837
1.6471,0.2444,38.49,95,93,131841
1.6227,0.2395,38.58,95,93,131844
1.6569,0.2395,38.46,95,93,131848
1.6569,0.2346,38.62,95,93,131851
1.6716,0.2346,38.62,95,93,131854
1.6911,0.2444,38.49,95,93,131858
1.6813,0.2444,38.62,95,93,131861
1.7155,0.2395,38.49,95,93,131864
1.6813,0.2346,38.71,95,93,131868
1.6911,0.2395,38.65,95,93,131871
1.7009,0.2395,38.52,95,93,131874
1.6911,0.2395,38.62,95,93,131878
1.7644,0.2395,38.36,95,93,131881
1.7058,0.2346,38.62,95,93,131885
1.7155,0.2395,38.58,95,93,131888
1.7351,0.2395,38.55,95,93,131892
1.7155,0.2590,38.58,95,93,131895
1.7595,0.2395,38.43,95,93,131898
1.7351,0.2297,38.55,95,93,131902
1.7253,0.2346,38.62,95,93,131905
1.7253,0.2395,38.55,95,93,131908
1.7009,0.2346,38.62,95,93,131912
1.7449,0.2590,38.36,95,93,131915
1.7058,0.2444,38.46,95,93,131918
1.6960,0.2346,38.58,95,93,131922
1.7058,0.2395,38.62,95,93,131926
1.7009,0.2346,38.62,95,93,131929
1.7498,0.2493,38.43,95,93,131932
1.7449,0.2395,38.55,95,93,131936
1.7693,0.2395,38.46,95,93,131939
1.7498,0.2395,38.68,95,93,131942
1.7546,0.2346,38.71,95,93,131946
1.7644,0.2590,38.55,95,93,131949
1.7449,0.2395,38.58,95,93,131952
1.7546,0.2444,38.46,95,93,131956
1.7840,0.2395,38.58,95,93,131959
1.7791,0.2346,38.62,95,93,131962
1.8084,0.2493,38.49,95,93,131966
1.7693,0.2395,38.58,95,93,131970
1.7742,0.2395,38.46,95,93,131973
1.7644,0.2346,38.52,95,93,131976
1.7791,0.2395,38.62,95,93,131980
1.8084,0.2444,38.36,95,93,131983
1.7937,0.2346,38.62,95,93,131986
1.8573,0.2444,38.43,95,93,131990
1.8377,0.2395,38.55,95,93,131993
1.8426,0.2346,38.62,95,93,131996
1.8573,0.2444,38.55,95,93,132000
1.8573,0.2444,38.58,95,93,132003
1.9306,0.2493,38.30,95,93,132006
1.9013,0.2346,38.49,95,93,132011
1.9062,0.2346,38.62,95,93,132014
1.9013,0.2297,38.55,95,93,132017
1.8915,0.2346,38.58,95,93,132020
1.9404,0.2542,38.43,95,93,132024
1.9110,0.2444,38.46,95,93,132027
1.9159,0.2493,38.49,95,93,132030
1.9159,0.2395,38.71,95,93,132034
1.9062,0.2346,38.58,95,93,132037
1.9501,0.2395,38.40,95,93,132040
1.8915,0.2395,38.65,95,93,132044
1.9013,0.2590,38.55,95,93,132047
1.8915,0.2395,38.58,95,93,132050
1.8915,0.2297,38.65,95,93,132054
1.9110,0.2493,38.55,95,93,132058
1.8964,0.2395,38.58,95,93,132061
1.8964,0.2444,38.49,95,93,132064
1.8524,0.2395,38.21,95,93,132068
1.8426,0.2346,38.58,95,93,132071
1.8377,0.2395,38.52,95,93,132074
1.8084,0.2395,38.55,95,93,132078
1.8280,0.2346,38.43,95,93,132081
1.8084,0.2346,38.68,95,93,132084
1.8231,0.2297,38.62,95,93,132088
1.8671,0.2493,38.49,95,93,132091
1.8328,0.2395,38.55,95,93,132094
1.8622,0.2444,38.33,95,93,132098
1.8280,0.2395,38.49,95,93,132102
1.8035,0.2346,38.65,95,93,132105
1.8231,0.2444,38.55,95,93,132108
1.8133,0.2395,38.58,95,93,132112
1.8719,0.2395,38.30,95,93,132115
1.8328,0.2395,38.49,95,93,132118
1.8280,0.2346,38.55,95,93,132122
1.8524,0.2444,38.62,95,93,132125
1.8426,0.2346,38.62,95,93,132128
1.9013,0.2542,38.49,95,93,132132
1.8622,0.2444,38.55,95,93,132135
1.8426,0.2346,38.58,95,93,132139
1.8328,0.2346,38.62,95,93,132142
1.8475,0.2346,38.58,95,93,132146
1.8817,0.2493,38.55,95,93,132149
1.8768,0.2395,38.55,95,93,132152
1.9013,0.2395,38.52,95,93,132156
1.8719,0.2395,38.62,95,93,132159
1.8671,0.2346,38.68,95,93,132162
1.8817,0.2493,38.46,95,93,132166
1.8817,0.2395,38.55,95,93,132170
1.8671,0.2346,38.58,95,93,132174
1.9159,0.2444,38.33,95,93,132177
1.8915,0.2346,38.52,95,93,132180
1.8964,0.2346,38.62,95,93,132185
1.9257,0.2444,38.55,95,93,132188
1.9257,0.2346,38.62,95,93,132191
1.9844,0.2542,38.43,95,93,132194
1.9453,0.2346,38.55,95,93,132198
1.9306,0.2297,38.55,95,93,132201
1.9306,0.2395,38.62,95,93,132204
1.9306,0.2297,38.58,95,93,132208
1.9990,0.2493,38.49,95,93,132211
1.9795,0.2444,38.55,95,93,132214
1.9941,0.2297,38.52,95,93,132218
1.9697,0.2444,38.58,95,93,132221
1.9550,0.2346,38.58,95,93,132225
1.9648,0.2493,38.55,95,93,132229
1.9013,0.2444,38.58,95,93,132232
1.8866,0.2395,38.49,95,93,132235
1.8377,0.2395,38.40,95,93,132238
1.8280,0.2493,38.58,95,93,132242
1.8475,0.2297,38.49,95,93,132245
1.8231,0.2395,37.87,95,93,132248
1.8524,0.2346,38.52,95,93,132252
1.8182,0.2346,38.55,95,93,132255
1.8133,0.2395,38.65,95,93,132258
1.8280,0.2395,38.49,95,93,132262
1.7937,0.2395,38.68,95,93,132265
1.8133,0.2395,38.36,95,93,132269
1.7840,0.2395,38.65,95,93,132273
1.7889,0.2493,38.62,95,93,132276
1.8035,0.2297,38.55,95,93,132279
1.7791,0.2346,38.55,95,93,132282
1.8231,0.2395,38.33,95,93,132286
1.7937,0.2444,38.65,95,93,132289
1.7840,0.2346,38.65,95,93,132292
1.7986,0.2395,38.55,95,93,132296
1.8035,0.2346,38.62,95,93,132299
1.8622,0.2933,38.36,95,93,132302
1.8133,0.2493,38.58,95,93,132306
1.7986,0.2395,38.52,95,93,132310
1.7986,0.2395,38.62,95,93,132313
1.8182,0.2346,38.71,95,93,132317
1.8866,0.2395,38.46,95,93,132320
1.8964,0.2444,38.55,95,93,132323
1.9746,0.2395,38.46,95,93,132326
2.0674,0.2395,38.62,95,93,132330
2.1896,0.2346,38.58,95,93,132333
2.3900,0.2542,38.55,95,93,132336
2.6002,0.2444,38.58,95,93,132340
2.8739,0.2444,38.49,95,93,132343
3.0694,0.2346,38.58,95,93,132346
3.2600,0.2346,38.62,95,93,132350
3.3480,0.2493,38.84,95,93,132354
3.1965,0.2395,38.58,95,93,132357
2.9228,0.2395,38.46,95,93,132361
2.5513,0.2346,38.49,95,93,132364
2.2141,0.2395,38.62,95,93,132367
1.9599,0.2493,38.49,95,93,132370
1.7155,0.2346,38.68,95,93,132374
1.5836,0.2444,38.43,95,93,132377
1.4370,0.2639,38.52,95,93,132380
1.3490,0.2395,38.68,95,93,132384
1.3050,0.2444,38.55,95,93,132387
1.2757,0.2346,38.58,95,93,132390
1.3001,0.2590,38.27,95,93,132395
1.2757,0.2297,38.52,95,93,132398
1.3050,0.2346,38.58,95,93,132401
1.3343,0.2395,38.58,95,93,132404
1.3539,0.2297,38.58,95,93,132408
1.4223,0.2590,38.49,95,93,132411
1.4076,0.2346,38.55,95,93,132414
1.4370,0.2346,38.52,95,93,132418
1.4370,0.2444,38.58,95,93,132421
1.4565,0.2444,38.62,95,93,132424
1.5054,0.2493,38.43,95,93,132428
1.5347,0.2444,38.55,95,93,132431
1.5249,0.2395,38.46,95,93,132434
1.5200,0.2395,38.58,95,93,132439
1.5298,0.2248,38.62,95,93,132442
1.5591,0.2493,38.49,95,93,132445
1.5543,0.2395,38.65,95,93,132448
1.5885,0.2395,38.49,95,93,132452
1.5689,0.2395,38.71,95,93,132455
1.5787,0.2346,38.58,95,93,132458
1.5787,0.2444,38.52,95,93,132462
1.5836,0.2395,38.55,95,93,132465
1.6031,0.2395,38.43,95,93,132468
1.5836,0.2395,38.62,95,93,132472
1.6129,0.2346,38.62,95,93,132475
1.6178,0.2444,38.65,95,93,132478
1.6178,0.2395,38.58,95,93,132483
1.6569,0.2444,38.33,95,93,132486
1.6471,0.2444,38.49,95,93,132489
1.6325,0.2346,38.68,95,93,132492
1.6373,0.2444,38.68,95,93,132496
1.6276,0.2493,38.58,95,93,132499
1.6813,0.2542,38.33,95,93,132502
1.6422,0.2395,38.62,95,93,132506
1.6325,0.2346,38.58,95,93,132509
1.6325,0.2395,38.62,95,93,132512
1.6325,0.2395,38.55,95,93,132516
1.7107,0.2493,38.49,95,93,132519
1.6520,0.2395,38.52,95,93,132523
1.6569,0.2395,38.46,95,93,132527
1.6422,0.2395,38.62,95,93,132530
1.6373,0.2444,38.62,95,93,132533
1.6569,0.2444,38.55,95,93,132537
1.6471,0.2346,38.49,95,93,132540
1.6716,0.2346,38.43,95,93,132543
1.6569,0.2395,38.58,95,93,132546
1.6667,0.2395,38.62,95,93,132550
1.6960,0.2493,38.46,95,93,132553
1.6813,0.2493,38.58,95,93,132556
1.7155,0.2395,38.43,95,93,132560
1.7058,0.2395,38.55,95,93,132563
1.7058,0.2346,38.62,95,93,132567
1.7302,0.2786,38.49,95,93,132571
1.7498,0.2395,38.62,95,93,132574
1.7595,0.2444,38.36,95,93,132577
1.7351,0.2444,38.55,95,93,132581
1.7351,0.2346,38.62,95,93,132584
1.7449,0.2542,38.58,95,93,132587
1.7742,0.2395,38.62,95,93,132590
1.8035,0.2297,38.30,95,93,132594
1.7791,0.2395,38.55,95,93,132597
1.7937,0.2346,38.58,95,93,132600
1.8084,0.2395,38.52,95,93,132604
1.8182,0.2395,38.62,95,93,132608
1.8866,0.2542,38.49,95,93,132611
1.8622,0.2444,38.52,95,93,132615
1.8671,0.2346,38.49,95,93,132618
1.8573,0.2395,38.58,95,93,132621
1.8573,0.2395,38.62,95,93,132625
1.8866,0.2493,38.43,95,93,132628
1.8524,0.2444,38.55,95,93,132631
1.8671,0.2297,38.46,95,93,132635
1.8475,0.2297,38.62,95,93,132638
1.8817,0.2395,38.62,95,93,132641
1.8768,0.2444,38.52,95,93,132644
1.8524,0.2493,38.58,95,93,132648
1.8768,0.2395,38.49,95,93,132652
1.8377,0.2346,38.55,95,93,132655
1.8328,0.2395,38.58,95,93,132659
1.8524,0.2444,38.62,95,93,132662
1.8377,0.2346,38.62,95,93,132665
1.8768,0.2395,38.40,95,93,132669
1.8328,0.2395,38.77,95,93,132672
1.8280,0.2346,38.62,95,93,132675
1.8475,0.2493,38.52,95,93,132679
1.8182,0.2395,38.62,95,93,132682
1.8524,0.2493,38.33,95,93,132685
1.8133,0.2444,38.49,95,93,132688
1.8231,0.2346,38.62,95,93,132692
1.7889,0.2493,38.55,95,93,132696
1.7791,0.2346,38.62,95,93,132699
1.8231,0.2590,38.55,95,93,132703
1.7840,0.2542,38.52,95,93,132706
1.7546,0.2346,38.52,95,93,132709
1.7546,0.2786,38.62,95,93,132713
1.7889,0.2395,38.65,95,93,132716
1.7889,0.2493,38.52,95,93,132719
1.7742,0.2346,38.55,95,93,132723
1.7791,0.2297,38.49,95,93,132726
1.7595,0.2346,38.62,95,93,132729
1.7644,0.2346,38.58,95,93,132732
1.7840,0.2444,38.46,95,93,132737
1.7693,0.2444,38.55,95,93,132740
1.7986,0.2493,38.49,95,93,132743
1.7644,0.2444,38.62,95,93,132747
1.7693,0.2297,38.62,95,93,132750
1.7937,0.2444,38.43,95,93,132753
1.7742,0.2395,38.62,95,93,132757
1.7986,0.2395,38.43,95,93,132760
1.7840,0.2444,38.49,95,93,132763
1.7791,0.2395,38.58,95,93,132767
1.7937,0.2542,38.55,95,93,132770
1.7693,0.2346,38.62,95,93,132773
1.8084,0.2444,38.33,95,93,132777
1.8133,0.2542,38.46,95,93,132781
1.7840,0.2444,38.55,95,93,132785
1.7986,0.2346,38.49,95,93,132788
1.7986,0.2395,38.58,95,93,132791
1.8035,0.2395,38.58,95,93,132794
1.8377,0.2493,38.46,95,93,132798
1.8182,0.2493,38.55,95,93,132801
1.8328,0.2395,38.49,95,93,132804
1.8426,0.2395,38.58,95,93,132808
1.8133,0.2297,38.62,95,93,132811
1.8524,0.2835,38.49,95,93,132814
1.8377,0.2395,38.62,95,93,132818
1.8817,0.2395,38.52,95,93,132822
1.8719,0.2395,38.55,95,93,132825
1.8964,0.2395,38.55,95,93,132829
1.9404,0.2395,38.49,95,93,132832
1.9355,0.2395,38.68,95,93,132835
1.9697,0.2444,38.46,95,93,132839
1.9453,0.2395,38.49,95,93,132842
1.9257,0.2346,38.71,95,93,132845
1.9355,0.2493,38.52,95,93,132848
1.8866,0.2395,38.62,95,93,132852
1.9208,0.2493,38.33,95,93,132855
1.8622,0.2395,38.55,95,93,132858
1.8524,0.2346,38.71,95,93,132862
1.8524,0.2444,38.55,95,93,132866
1.8426,0.2395,38.62,95,93,132869
1.8866,0.2542,38.36,95,93,132873
1.8377,0.2542,38.55,95,93,132876
1.8084,0.2346,37.77,95,93,132879
1.7986,0.2395,38.58,95,93,132883
1.7742,0.2395,38.68,95,93,132886
1.7986,0.2493,38.40,95,93,132889
1.7742,0.2395,38.55,95,93,132892
1.7693,0.2395,38.46,95,93,132896
1.7791,0.2395,38.62,95,93,132899
1.7400,0.2297,38.62,95,93,132902
1.7644,0.2444,38.49,95,93,132907
1.7498,0.2444,38.58,95,93,132910
1.7644,0.2493,38.49,95,93,132913
1.7546,0.2395,38.71,95,93,132917
1.7644,0.2346,38.68,95,93,132920
1.7840,0.2297,38.55,95,93,132923
1.7840,0.2395,38.62,95,93,132926
1.8035,0.2444,38.40,95,93,132930
1.7889,0.2297,38.62,95,93,132933
1.8035,0.2395,38.52,95,93,132936
1.8475,0.2493,38.52,95,93,132940
1.8671,0.2395,38.58,95,93,132943
1.9648,0.2395,38.36,95,93,132946
2.0186,0.2444,38.71,95,93,132951
2.1212,0.2346,38.62,95,93,132954
2.2972,0.2444,38.55,95,93,132957
2.4780,0.2395,38.62,95,93,132961
2.7859,0.2542,38.33,95,93,132964
2.9863,0.2395,38.58,95,93,132967
3.1769,0.2346,38.62,95,93,132971
3.2991,0.2444,38.58,95,93,132974
3.2258,0.2395,38.52,95,93,132977
3.0890,0.2639,38.40,95,93,132980
2.7273,0.2346,38.52,95,93,132984
2.4096,0.2346,38.52,95,93,132987
2.1310,0.2493,38.62,95,93,132990
1.8915,0.2395,38.62,95,93,132995
1.7400,0.2493,38.58,95,93,132998
1.5787,0.2444,38.62,95,93,133001
1.5005,0.2346,38.49,95,93,133005
1.4027,0.2395,38.58,95,93,133008
1.3734,0.2346,38.58,95,93,133011
1.3685,0.2493,38.43,95,93,133014
1.3343,0.2590,38.65,95,93,133018
1.3490,0.2493,38.49,95,93,133021
1.3490,0.2297,38.55,95,93,133024
1.3636,0.2395,38.74,95,93,133028
1.3832,0.2444,38.46,95,93,133031
1.4027,0.2395,38.68,95,93,133035
1.4516,0.2737,38.40,95,93,133039
1.4663,0.2395,38.55,95,93,133042
1.4956,0.2346,38.65,95,93,133045
1.5249,0.2542,38.52,95,93,133049
1.5396,0.2297,38.65,95,93,133052
1.5934,0.2444,38.33,95,93,133055
1.5787,0.2346,37.93,95,93,133058
1.6031,0.2346,38.62,95,93,133062
1.6178,0.2395,38.58,95,93,133065
1.6227,0.2590,38.62,95,93,133068
1.6911,0.2590,38.33,95,93,133072
1.6618,0.2395,38.77,95,93,133075
1.6618,0.2346,38.52,95,93,133079
1.6764,0.2395,38.81,95,93,133083
1.6813,0.2248,38.62,95,93,133086
1.7302,0.2493,38.43,95,93,133089
1.7058,0.2493,38.52,95,93,133093
1.7107,0.2346,38.49,95,93,133096
1.7009,0.2395,38.62,95,93,133099
1.7058,0.2346,38.43,95,93,133102
1.7351,0.2493,38.46,95,93,133106
1.7204,0.2297,38.58,95,93,133109
1.7400,0.2444,38.46,95,93,133112
1.7204,0.2395,38.62,95,93,133116
1.7253,0.2395,38.62,95,93,133120
1.7400,0.2493,38.52,95,93,133123
1.7400,0.2395,38.58,95,93,133127
1.7742,0.2395,38.46,95,93,133130
1.7400,0.2884,38.62,95,93,133133
1.7351,0.2444,38.62,95,93,133137
1.7498,0.2444,38.62,95,93,133140
1.7302,0.2395,38.58,95,93,133143
1.7546,0.2444,38.40,95,93,133146
1.7302,0.2395,38.52,95,93,133150
1.7204,0.2346,38.58,95,93,133153
1.7400,0.2444,37.93,95,93,133156
1.7204,0.2395,38.62,95,93,133160
1.7644,0.2542,38.33,95,93,133164
1.7302,0.2395,38.46,95,93,133167
1.7253,0.2346,38.62,95,93,133171
1.7302,0.2444,38.58,95,93,133174
1.7204,0.2395,38.62,95,93,133177
1.7742,0.2542,38.36,95,93,133181
1.7351,0.2444,38.52,95,93,133184
1.7498,0.2346,38.52,95,93,133187
1.7351,0.2395,38.74,95,93,133190
1.7742,0.2346,38.62,95,93,133194
1.7791,0.2493,38.49,95,93,133197
1.7595,0.2444,38.62,95,93,133200
1.7937,0.2346,38.46,95,93,133204
1.7693,0.2395,38.58,95,93,133208
1.8084,0.2395,38.62,95,93,133211
1.8280,0.2493,38.43,95,93,133215
1.8133,0.2444,38.58,95,93,133218
1.8622,0.2493,38.49,95,93,133221
1.8377,0.2297,38.49,95,93,133225
1.8475,0.2444,38.62,95,93,133228
1.8719,0.2444,38.52,95,93,133231
1.8671,0.2688,38.58,95,93,133234
1.9013,0.2444,38.40,95,93,133238
1.8817,0.2395,38.55,95,93,133241
1.8866,0.2346,38.58,95,93,133244
1.8964,0.2493,38.52,95,93,133249
1.8817,0.2395,38.52,95,93,133252
1.9159,0.2835,38.33,95,93,133255
1.8622,0.2346,38.58,95,93,133259
1.8671,0.2346,38.58,95,93,133262
1.8719,0.2444,38.55,95,93,133265
1.8622,0.2395,38.71,95,93,133269
1.9110,0.2590,38.30,95,93,133272
1.8622,0.2395,38.52,95,93,133275
1.8524,0.2346,38.55,95,93,133278
1.8573,0.2444,38.58,95,93,133282
1.8573,0.2346,38.58,95,93,133285
1.9062,0.2542,38.43,95,93,133288
1.8671,0.2395,38.52,95,93,133293
1.8573,0.2297,38.52,95,93,133296
1.8475,0.2395,38.55,95,93,133299
1.8524,0.2346,38.62,95,93,133303
1.8719,0.2493,38.49,95,93,133306
1.8377,0.2493,38.55,95,93,133309
1.8573,0.2395,38.58,95,93,133313
1.8280,0.2395,38.58,95,93,133316
1.8475,0.2395,38.58,95,93,133319
1.8426,0.2395,38.55,95,93,133322
1.8328,0.2786,38.58,95,93,133326
1.8573,0.2395,38.49,95,93,133329
1.8231,0.2444,38.62,95,93,133332
1.8426,0.2395,38.62,95,93,133337
1.8426,0.2444,38.40,95,93,133340
1.8182,0.2395,38.58,95,93,133343
1.8426,0.2444,38.40,95,93,133347
1.8182,0.2395,38.49,95,93,133350
1.8377,0.2346,38.62,95,93,133353
1.8280,0.2493,38.49,95,93,133357
1.8035,0.2688,38.68,95,93,133360
1.8817,0.2444,38.33,95,93,133363
1.8133,0.2395,38.46,95,93,133366
1.8231,0.2395,38.62,95,93,133370
1.8182,0.2395,38.58,95,93,133373
1.8182,0.2395,38.62,95,93,133377
1.8817,0.2493,38.36,95,93,133381
1.8377,0.2444,38.52,95,93,133384
1.8426,0.2346,38.52,95,93,133387
1.8426,0.2395,38.68,95,93,133391
1.8573,0.2395,38.62,95,93,133394
1.8622,0.2395,38.58,95,93,133398
1.9208,0.2395,38.46,95,93,133401
1.8719,0.2395,38.62,95,93,133404
1.9013,0.2346,38.49,95,93,133408
1.8768,0.2346,38.55,95,93,133411
1.8817,0.2346,38.68,95,93,133414
1.9013,0.2444,38.43,95,93,133417
1.8964,0.2395,38.62,95,93,133422
1.9404,0.2444,38.40,95,93,133425
1.9257,0.2395,38.55,95,93,133428
1.9257,0.2395,37.87,95,93,133432
1.9550,0.2444,38.55,95,93,133435
1.9404,0.2346,38.62,95,93,133438
2.0088,0.2493,38.36,95,93,133442
1.9941,0.2395,38.52,95,93,133445
1.9844,0.2346,38.62,95,93,133448
2.0039,0.2444,38.62,95,93,133452
2.0430,0.2444,38.65,95,93,133455
2.0723,0.2590,38.36,95,93,133458
2.0332,0.2444,38.43,95,93,133462
2.0088,0.2346,38.52,95,93,133466
2.0039,0.2395,38.55,95,93,133469
1.9746,0.2346,38.58,95,93,133472
1.9990,0.2493,38.36,95,93,133476
1.9404,0.2444,38.55,95,93,133479
1.9208,0.2395,38.55,95,93,133482
1.8915,0.2444,38.58,95,93,133486
1.8817,0.2346,38.62,95,93,133489
1.8964,0.2444,38.46,95,93,133492
1.8671,0.2444,38.55,95,93,133495
1.8719,0.2395,38.46,95,93,133499
1.8328,0.2395,38.58,95,93,133502
1.8231,0.2395,38.58,95,93,133506
1.8280,0.2493,38.49,95,93,133510
1.8133,0.2395,38.58,95,93,133513
1.8377,0.2297,38.46,95,93,133516
1.8035,0.2346,38.68,95,93,133520
1.7986,0.2395,38.62,95,93,133523
1.8231,0.2444,38.62,95,93,133526
1.7986,0.2346,38.58,95,93,133530
1.8426,0.2444,38.40,95,93,133533
1.8231,0.2590,38.46,95,93,133536
1.8133,0.2346,38.68,95,93,133539
1.8280,0.2444,37.77,95,93,133543
1.8084,0.2639,38.58,95,93,133547
1.8719,0.2493,38.30,95,93,133550
1.8084,0.2395,38.52,95,93,133554
1.7986,0.2688,38.62,95,93,133557
1.8182,0.2444,38.58,95,93,133560
1.8328,0.2395,38.71,95,93,133564
1.9306,0.2590,38.36,95,93,133567
1.9453,0.2444,38.52,95,93,133570
2.0235,0.2346,38.74,95,93,133574
2.1359,0.2346,38.62,95,93,133577
2.2923,0.2395,38.62,95,93,133580
2.5367,0.2493,38.55,95,93,133583
2.7419,0.2395,38.62,95,93,133587
2.9961,0.2395,38.46,95,93,133591
3.1574,0.2395,38.58,95,93,133594
3.2258,0.2395,38.74,95,93,133598
3.1818,0.2590,38.46,95,93,133601
2.8935,0.2395,38.58,95,93,133604
2.6295,0.2493,38.49,95,93,133608
2.3265,0.2346,38.58,95,93,133611
2.0674,0.2395,38.62,95,93,133614
1.8817,0.2444,38.46,95,93,133618
1.7058,0.2297,38.58,95,93,133621
1.6031,0.2395,38.43,95,93,133624
1.4956,0.2493,38.52,95,93,133627
1.4418,0.2395,38.68,95,93,133632
1.4027,0.2444,38.58,95,93,133635
1.3832,0.2444,38.58,95,93,133638
1.3978,0.2395,38.43,95,93,133642
1.3832,0.2346,38.55,95,93,133645
1.4027,0.2444,38.68,95,93,133648
1.4272,0.2444,38.62,95,93,133652
1.4321,0.2346,38.68,95,93,133655
1.4858,0.2493,38.30,95,93,133658
1.4809,0.2444,38.52,95,93,133661
1.4907,0.2346,38.71,95,93,133665
1.5103,0.2395,38.58,95,93,133668
1.5298,0.2395,37.83,95,93,133671
1.5885,0.2639,38.40,95,93,133676
1.5689,0.2444,38.52,95,93,133679
1.5738,0.2346,38.49,95,93,133682
1.5885,0.2346,38.65,95,93,133686
1.6031,0.2346,38.62,95,93,133689
1.6471,0.2493,38.49,95,93,133692
1.6471,0.2395,38.62,95,93,133696
1.6764,0.2395,38.52,95,93,133699
1.6764,0.2444,38.68,95,93,133702
1.6764,0.2395,38.62,95,93,133705
1.7058,0.2395,38.55,95,93,133709
1.7107,0.2395,38.62,95,93,133712
1.7449,0.2493,38.55,95,93,133715
1.7253,0.2395,38.65,95,93,133720
1.7253,0.2346,38.68,95,93,133723
1.7400,0.2542,38.55,95,93,133726
1.7155,0.2297,38.58,95,93,133730
1.7351,0.2395,38.40,95,93,133733
1.7155,0.2346,38.49,95,93,133736
1.7155,0.2346,38.58,95,93,133740
1.7155,0.2493,38.52,95,93,133743
1.7155,0.2346,38.58,95,93,133746
1.7644,0.2444,38.36,95,93,133749
1.7400,0.2444,38.52,95,93,133753
1.7644,0.2346,38.62,95,93,133756
1.7449,0.2444,38.77,95,93,133760
1.7351,0.2395,38.58,95,93,133764
1.7986,0.2590,38.33,95,93,133767
1.7595,0.2395,38.46,95,93,133770
1.7595,0.2395,38.55,95,93,133774
1.7644,0.2395,38.58,95,93,133777
1.7644,0.2395,38.65,95,93,133780
1.8084,0.2542,38.46,95,93,133784
1.7791,0.2395,38.65,95,93,133787
1.7937,0.2395,38.49,95,93,133790
1.7840,0.2395,38.62,95,93,133793
1.7937,0.2395,38.68,95,93,133797
1.8280,0.2737,38.49,95,93,133800
1.7986,0.2395,38.58,95,93,133804
1.8084,0.2444,38.49,95,93,133808
1.7937,0.2346,38.62,95,93,133811
1.7791,0.2395,38.62,95,93,133814
1.7937,0.2542,38.46,95,93,133818
1.7889,0.2444,38.62,95,93,133821
1.8084,0.2395,38.58,95,93,133824
1.7840,0.2346,38.46,95,93,133827
1.7889,0.2444,38.68,95,93,133831
1.8084,0.2297,38.49,95,93,133834
1.8035,0.2395,38.62,95,93,133837
1.8524,0.2444,38.36,95,93,133841
1.8377,0.2395,38.58,95,93,133844
1.8573,0.2346,38.68,95,93,133848
1.8817,0.2444,38.52,95,93,133852
1.8719,0.2395,38.62,95,93,133855
1.9257,0.2737,38.36,95,93,133858
1.9062,0.2395,38.49,95,93,133862
1.9013,0.2346,38.65,95,93,133865
1.9208,0.2444,38.55,95,93,133868
1.9110,0.2395,38.58,95,93,133871
1.9453,0.2590,38.30,95,93,133875
1.8768,0.2542,38.49,95,93,133878
1.8524,0.2346,38.55,95,93,133881
1.8475,0.2395,38.52,95,93,133885
1.8426,0.2346,38.58,95,93,133889
1.9013,0.2493,38.43,95,93,133892
1.8719,0.2688,38.52,95,93,133896
1.8817,0.2395,38.49,95,93,133899
1.8622,0.2395,38.62,95,93,133902
1.8475,0.2346,38.65,95,93,133906
1.8622,0.2444,38.55,95,93,133909
1.8328,0.2395,38.58,95,93,133912
1.8719,0.2395,38.43,95,93,133915
1.8182,0.2395,38.62,95,93,133919
1.8573,0.2346,38.58,95,93,133922
1.8573,0.2444,38.46,95,93,133925
1.8328,0.2395,38.62,95,93,133929
1.8426,0.2395,38.43,95,93,133933
1.8133,0.2346,38.58,95,93,133936
1.7986,0.2590,38.62,95,93,133940
1.8035,0.2444,38.49,95,93,133943
1.7791,0.2395,38.65,95,93,133946
1.8084,0.2542,38.33,95,93,133949
1.7889,0.2297,38.55,95,93,133953
1.7840,0.2297,38.58,95,93,133956
1.7986,0.2835,38.52,95,93,133959
1.8182,0.2444,38.62,95,93,133963
1.8280,0.2493,38.33,95,93,133966
1.7889,0.2346,38.52,95,93,133969
1.7742,0.2346,38.58,95,93,133974
1.7742,0.2444,38.58,95,93,133977
1.7693,0.2395,38.68,95,93,133980
1.8328,0.2590,38.49,95,93,133984
1.7986,0.2444,38.52,95,93,133987
1.7889,0.2346,38.55,95,93,133990
1.7937,0.2395,38.65,95,93,133993
1.8231,0.2346,38.62,95,93,133997
1.8328,0.2493,38.52,95,93,134000
1.8524,0.2395,38.46,95,93,134004
1.8426,0.2688,38.62,95,93,134007
1.8915,0.2346,38.43,95,93,134010
1.8426,0.2346,38.58,95,93,134014
1.8426,0.2297,38.62,95,93,134018
1.8671,0.2395,38.49,95,93,134021
1.8573,0.2395,38.65,95,93,134025
1.9013,0.2444,38.40,95,93,134028
1.8817,0.2297,38.58,95,93,134031
1.9062,0.2346,38.58,95,93,134035
1.9404,0.2444,38.55,95,93,134038
1.9306,0.2395,38.58,95,93,134041
1.9795,0.2590,38.30,95,93,134044
1.9501,0.2395,38.49,95,93,134048
1.9355,0.2346,38.58,95,93,134051
1.9648,0.2395,38.55,95,93,134054
1.9453,0.2395,38.65,95,93,134059
2.0235,0.2981,38.40,95,93,134062
2.0039,0.2493,38.52,95,93,134065
2.0039,0.2346,38.55,95,93,134069
2.0088,0.2395,38.68,95,93,134072
2.0137,0.2395,38.58,95,93,134075
2.0577,0.2737,38.43,95,93,134078
2.0137,0.2395,38.55,95,93,134082
1.9892,0.2395,38.49,95,93,134085
1.9746,0.2346,38.58,95,93,134088
1.9013,0.2395,38.52,95,93,134092
1.8964,0.2444,38.55,95,93,134095
1.8524,0.2395,38.58,95,93,134098
1.8524,0.2395,38.49,95,93,134103
1.8133,0.2395,38.58,95,93,134106
1.8182,0.2346,38.58,95,93,134109
1.8426,0.2639,38.49,95,93,134113
1.8035,0.2395,38.65,95,93,134116
1.8084,0.2395,38.43,95,93,134119
1.7693,0.2395,38.52,95,93,134122
1.7449,0.2346,38.62,95,93,134126
1.7449,0.2395,38.46,95,93,134129
1.7155,0.2297,38.58,95,93,134132
1.7302,0.2444,38.36,95,93,134136
1.6911,0.2444,38.55,95,93,134139
1.6813,0.2395,38.62,95,93,134142
1.7009,0.2493,38.52,95,93,134147
1.7009,0.2395,38.58,95,93,134150
1.7644,0.2297,38.30,95,93,134153
1.7400,0.2395,38.52,95,93,134157
1.7546,0.2590,38.58,95,93,134160
1.7644,0.2395,38.58,95,93,134163
1.7595,0.2395,38.62,95,93,134166
1.8133,0.2493,38.36,95,93,134170
1.7644,0.2444,38.49,95,93,134173
1.7644,0.2395,38.52,95,93,134176
1.7791,0.2395,38.55,95,93,134180
1.8084,0.2688,38.58,95,93,134183
1.8866,0.2493,38.43,95,93,134187
1.9404,0.2444,38.55,95,93,134191
2.0772,0.2444,38.46,95,93,134194
2.2239,0.2395,38.62,95,93,134197
2.4389,0.2346,38.65,95,93,134201
2.7615,0.2395,38.49,95,93,134204
2.9570,0.2297,38.58,95,93,134207
3.2014,0.2444,38.40,95,93,134210
3.2502,0.2297,38.62,95,93,134214
3.1769,0.2395,38.62,95,93,134217
2.9521,0.2395,38.58,95,93,134220
2.6197,0.2639,38.58,95,93,134224
2.3460,0.2395,38.43,95,93,134227
2.0381,0.2395,38.74,95,93,134231
1.8084,0.2248,38.58,95,93,134235
1.6422,0.2444,38.52,95,93,134238
1.4956,0.2395,38.62,95,93,134241
1.4418,0.2444,38.36,95,93,134244
1.3783,0.2444,38.55,95,93,134248
1.3441,0.2346,38.58,95,93,134251
1.3490,0.2444,38.62,95,93,134254
1.3441,0.2688,38.62,95,93,134258
1.3978,0.2542,38.30,95,93,134261
1.3881,0.2395,38.52,95,93,134264
1.4076,0.2297,38.55,95,93,134268
1.4418,0.2297,38.62,95,93,134272
1.4565,0.2444,38.62,95,93,134275
1.5152,0.2542,38.46,95,93,134279
1.5103,0.2444,37.96,95,93,134282
1.5249,0.2395,38.49,95,93,134285
1.5249,0.2395,38.58,95,93,134288
1.5445,0.2395,38.62,95,93,134292
1.5934,0.2493,38.52,95,93,134295
1.5787,0.2395,38.52,95,93,134298
1.6129,0.2493,38.43,95,93,134302
1.6031,0.2395,38.65,95,93,134305
1.6129,0.2444,38.62,95,93,134308
1.6471,0.2493,38.49,95,93,134312
1.6276,0.2395,38.71,95,93,134316
1.6716,0.2346,38.49,95,93,134319
1.6471,0.2346,38.58,95,93,134323
1.6667,0.2395,38.55,95,93,134326
1.6960,0.2444,38.46,95,93,134329
1.6911,0.2346,38.58,95,93,134333
1.7155,0.2346,38.40,95,93,134336
1.6764,0.2297,38.58,95,93,134339
1.6667,0.2395,38.68,95,93,134342
1.7009,0.2395,38.58,95,93,134346
1.7107,0.2395,38.62,95,93,134349
1.7498,0.2493,38.40,95,93,134352
1.6960,0.2297,38.52,95,93,134356
1.6911,0.2346,38.62,95,93,134360
1.7009,0.2444,38.58,95,93,134363
1.7107,0.2297,38.62,95,93,134367
1.7693,0.2590,38.36,95,93,134370
1.7400,0.2444,38.55,95,93,134373
1.7449,0.2346,38.52,95,93,134376
1.7400,0.2395,38.55,95,93,134380
1.7498,0.2346,38.62,95,93,134383
1.7595,0.2493,38.43,95,93,134386
1.7204,0.2786,38.55,95,93,134390
1.7204,0.2395,38.46,95,93,134393
1.7107,0.2395,38.18,95,93,134396
1.7204,0.2688,38.62,95,93,134401
1.7449,0.2297,38.58,95,93,134404
1.7107,0.2395,38.02,95,93,134407
1.7302,0.2444,38.40,95,93,134411
1.7204,0.2395,38.62,95,93,134414
1.7351,0.2395,38.58,95,93,134417
1.7498,0.2395,38.49,95,93,134420
1.7498,0.2346,38.68,95,93,134424
1.7742,0.2395,38.46,95,93,134427
1.7351,0.2346,38.62,95,93,134430
1.7302,0.2346,38.58,95,93,134434
1.7449,0.2444,38.52,95,93,134437
1.7400,0.2395,38.62,95,93,134440
1.7742,0.2444,38.40,95,93,134445
1.7400,0.2737,38.55,95,93,134448
1.7351,0.2346,38.58,95,93,134451
1.7302,0.2444,38.43,95,93,134455
1.7253,0.2444,38.62,95,93,134458
1.7986,0.2493,38.30,95,93,134461
1.7937,0.2688,38.52,95,93,134464
1.8035,0.2346,38.58,95,93,134468
1.8133,0.2395,38.58,95,93,134471
1.8231,0.2395,38.62,95,93,134474
1.8768,0.2542,38.43,95,93,134478
1.8377,0.2444,38.52,95,93,134481
1.8426,0.2346,38.55,95,93,134484
1.8426,0.2297,38.58,95,93,134489
1.8426,0.2444,38.55,95,93,134492
1.8817,0.2493,38.49,95,93,134495
1.8573,0.2395,38.58,95,93,134498
1.8671,0.2395,38.46,95,93,134502
1.8328,0.2395,38.52,95,93,134505
1.8328,0.2395,38.62,95,93,134508
1.8719,0.2493,38.46,95,93,134512
1.8377,0.2395,38.68,95,93,134515
1.8573,0.2444,38.49,95,93,134518
1.8280,0.2297,38.55,95,93,134522
1.8231,0.2395,38.62,95,93,134525
1.8231,0.2444,38.49,95,93,134529
1.7986,0.2395,38.62,95,93,134533
1.8328,0.2346,38.43,95,93,134536
1.8182,0.2395,38.55,95,93,134539
1.8084,0.2346,38.68,95,93,134543
1.8084,0.2493,38.52,95,93,134546
1.7742,0.2395,38.62,95,93,134549
1.8182,0.2444,38.36,95,93,134552
1.7986,0.2395,38.55,95,93,134556
1.8035,0.2639,38.65,95,93,134559
1.8084,0.2395,38.52,95,93,134562
1.7986,0.2395,38.62,95,93,134566
1.8524,0.2590,38.30,95,93,134569
1.8426,0.2395,38.49,95,93,134573
1.7937,0.2346,38.58,95,93,134577
1.7937,0.2688,38.58,95,93,134580
1.7693,0.2395,38.62,95,93,134583
1.8084,0.2493,38.43,95,93,134586
1.7986,0.2395,38.62,95,93,134590
1.7840,0.2395,38.46,95,93,134593
1.7644,0.2395,38.62,95,93,134596
1.7351,0.2395,38.62,95,93,134600
1.7595,0.2493,38.49,95,93,134603
1.7400,0.2395,38.55,95,93,134606
1.7595,0.2395,38.46,95,93,134610
1.7449,0.2395,38.62,95,93,134614
1.7791,0.2346,38.58,95,93,134618
1.7693,0.2395,38.62,95,93,134621
1.7986,0.2493,38.52,95,93,134624
1.7889,0.2444,38.55,95,93,134628
1.8280,0.2493,38.33,95,93,134631
1.8084,0.2444,38.55,95,93,134634
1.7986,0.2542,38.62,95,93,134638
1.8231,0.2444,38.55,95,93,134641
1.8280,0.2639,38.62,95,93,134644
1.9110,0.2493,38.33,95,93,134647
1.8328,0.2444,38.46,95,93,134651
1.8182,0.2346,38.55,95,93,134654
1.8231,0.2297,38.58,95,93,134658
1.8084,0.2346,38.62,95,93,134662
1.8328,0.2590,38.43,95,93,134665
1.8084,0.2444,38.55,95,93,134668
1.8182,0.2395,38.52,95,93,134672
1.8182,0.2346,38.58,95,93,134675
1.8231,0.2395,38.58,95,93,134678
1.8768,0.2493,38.52,95,93,134682
1.8964,0.2395,38.55,95,93,134685
1.9453,0.2395,38.40,95,93,134688
1.9306,0.2297,38.62,95,93,134691
1.9355,0.2395,38.58,95,93,134695
1.9648,0.2493,38.49,95,93,134699
1.9257,0.2395,38.62,95,93,134702
1.9257,0.2395,38.65,95,93,134706
1.8524,0.2346,38.52,95,93,134709
1.8231,0.2395,38.62,95,93,134712
1.8280,0.2444,38.46,95,93,134716
1.8133,0.2297,38.58,95,93,134719
1.8524,0.2444,38.33,95,93,134722
1.8573,0.2395,38.55,95,93,134726
1.8280,0.2297,38.62,95,93,134729
1.8524,0.2444,38.55,95,93,134732
1.8133,0.2395,38.62,95,93,134735
1.8377,0.2493,38.40,95,93,134739
1.7937,0.2346,38.52,95,93,134743
1.7986,0.2346,38.58,95,93,134746
1.8035,0.2688,38.55,95,93,134750
1.7889,0.2395,38.62,95,93,134753
1.8524,0.2590,38.40,95,93,134756
1.8280,0.2786,38.55,95,93,134760
1.8328,0.2395,38.55,95,93,134763
1.8084,0.2346,38.58,95,93,134766
1.8035,0.2444,38.62,95,93,134770
1.8573,0.2493,38.43,95,93,134773
1.8475,0.2444,38.55,95,93,134776
1.8768,0.2444,38.49,95,93,134779
1.8280,0.2395,38.58,95,93,134784
1.8328,0.2395,38.62,95,93,134787
1.9062,0.2493,38.49,95,93,134790
1.9306,0.2395,38.65,95,93,134794
1.9941,0.2444,38.49,95,93,134797
1.9941,0.2297,38.62,95,93,134800
2.0381,0.2395,38.71,95,93,134804
2.1457,0.2444,38.55,95,93,134807
2.2972,0.2297,38.62,95,93,134810
2.5367,0.2395,38.43,95,93,134813
2.7322,0.2395,38.62,95,93,134817
2.9863,0.2395,38.62,95,93,134820
3.2796,0.2493,38.55,95,93,134823
3.4213,0.2395,38.62,95,93,134828
3.4897,0.2542,38.33,95,93,134831
3.2698,0.2395,38.46,95,93,134834
2.9521,0.2297,38.62,95,93,134838
2.6197,0.2444,38.55,95,93,134841
2.2923,0.2297,38.62,95,93,134844
2.0772,0.2493,38.36,95,93,134848
1.8133,0.2395,38.46,95,93,134851
1.6276,0.2346,38.58,95,93,134854
1.5054,0.2395,38.62,95,93,134858
1.4125,0.2297,38.62,95,93,134861
1.4174,0.2542,38.40,95,93,134864
1.3832,0.2444,38.55,95,93,134867
1.3881,0.2297,38.46,95,93,134872
1.3930,0.2493,38.58,95,93,134875
1.4223,0.2395,38.62,95,93,134878
1.4663,0.2444,38.49,95,93,134882
1.4858,0.2395,38.58,95,93,134885
1.5396,0.2444,38.43,95,93,134888
1.5591,0.2395,38.58,95,93,134892
1.5543,0.2395,38.77,95,93,134895
1.5738,0.2444,38.55,95,93,134898
1.5787,0.2395,38.65,95,93,134902
1.6227,0.2395,38.49,95,93,134905
1.6129,0.2346,38.55,95,93,134908
1.6373,0.2395,38.68,95,93,134912
1.6813,0.2395,38.43,95,93,134916
1.6471,0.2395,38.71,95,93,134919
1.6520,0.2395,38.36,95,93,134922
1.6178,0.2395,38.55,95,93,134926
1.6325,0.2395,38.62,95,93,134929
1.6667,0.2444,38.55,95,93,134932
1.6520,0.2395,38.62,95,93,134936
1.6862,0.2542,38.33,95,93,134939
1.6764,0.2395,38.62,95,93,134942
1.7009,0.2395,38.58,95,93,134946
1.7107,0.2395,38.62,95,93,134949
1.6520,0.2395,38.58,95,93,134952
1.6862,0.2493,38.40,95,93,134956
1.6325,0.2444,38.55,95,93,134960
1.6129,0.2346,38.40,95,93,134963
1.6031,0.2395,38.65,95,93,134966
1.6178,0.2346,38.08,95,93,134970
1.6911,0.2493,38.40,95,93,134973
1.7009,0.2395,38.55,95,93,134976
1.7107,0.2395,38.49,95,93,134980
1.7009,0.2395,38.62,95,93,134983
1.7253,0.2395,38.62,95,93,134986
1.7498,0.2493,38.49,95,93,134990
1.7204,0.2639,38.58,95,93,134993
1.7351,0.2444,38.49,95,93,134996
1.7155,0.2395,38.65,95,93,135000
1.7351,0.2395,38.58,95,93,135004
1.7644,0.2444,38.46,95,93,135007
1.7498,0.2395,38.52,95,93,135010
1.7498,0.2493,38.43,95,93,135014
1.7009,0.2395,38.55,95,93,135017
1.6862,0.2297,38.58,95,93,135020
1.7009,0.2395,38.55,95,93,135024
1.6764,0.2395,38.81,95,93,135027
1.7302,0.2444,38.33,95,93,135030
1.7107,0.2444,38.49,95,93,135034
1.7107,0.2346,38.65,95,93,135037
1.7400,0.2444,38.52,95,93,135041
1.7302,0.2395,38.58,95,93,135044
1.7791,0.2493,38.27,95,93,135048
1.7302,0.2297,38.46,95,93,135051
1.7302,0.2346,38.68,95,93,135054
1.7498,0.2444,38.58,95,93,135058
1.7302,0.2395,38.62,95,93,135061
1.7546,0.2542,38.52,95,93,135064
1.7107,0.2444,38.62,95,93,135068
1.7204,0.2346,38.52,95,93,135071
1.7351,0.2395,38.52,95,93,135074
1.7595,0.2297,38.62,95,93,135078
1.8231,0.2493,38.52,95,93,135081
1.8328,0.2395,38.62,95,93,135085
1.8817,0.2297,38.46,95,93,135088
1.8671,0.2542,38.62,95,93,135092
1.8768,0.2395,38.62,95,93,135095
1.9110,0.2493,38.46,95,93,135098
1.8817,0.2297,38.58,95,93,135102
1.9110,0.2395,38.46,95,93,135105
1.8768,0.2395,38.52,95,93,135108
1.8866,0.2297,38.65,95,93,135112
1.9062,0.2444,38.46,95,93,135115
1.8719,0.2395,38.62,95,93,135118
1.8915,0.2444,38.46,95,93,135122
1.8573,0.2395,38.52,95,93,135126
1.8426,0.2395,38.62,95,93,135129
1.8573,0.2493,38.52,95,93,135132
1.8622,0.2346,38.58,95,93,135136
1.9110,0.2493,38.40,95,93,135139
1.8524,0.2395,38.49,95,93,135142
1.8377,0.2395,38.58,95,93,135146
1.8524,0.2444,38.71,95,93,135149
1.8475,0.2444,38.68,95,93,135152
1.9013,0.2590,38.36,95,93,135156
1.8573,0.2444,38.46,95,93,135159
1.8475,0.2346,38.52,95,93,135162
1.8524,0.2395,38.55,95,93,135166
1.8622,0.2346,38.62,95,93,135170
1.8915,0.2493,38.43,95,93,135173
1.8524,0.2395,38.55,95,93,135176
1.8426,0.2297,38.46,95,93,135180
1.8133,0.2542,38.58,95,93,135183
1.8084,0.2395,38.65,95,93,135186
1.8280,0.2493,38.55,95,93,135190
1.7937,0.2444,38.58,95,93,135193
1.8084,0.2542,38.49,95,93,135196
1.7546,0.2395,38.84,95,93,135200
1.7742,0.2346,38.62,95,93,135203
1.7840,0.2444,38.36,95,93,135206
1.7791,0.2346,38.62,95,93,135211
1.7986,0.2444,38.43,95,93,135214
1.7840,0.2444,38.62,95,93,135217
1.7791,0.2395,38.58,95,93,135221
1.8035,0.2493,38.52,95,92,135224
1.7986,0.2444,38.68,95,92,135228
1.7889,0.2493,38.58,95,92,135231
1.8328,0.2493,38.40,95,92,135234
1.7742,0.2493,38.52,95,92,135237
1.7693,0.2346,38.52,95,92,135241
1.7546,0.2395,38.58,95,92,135244
1.7840,0.2395,38.58,95,92,135247
1.8280,0.2590,38.43,95,92,135251
1.8035,0.2395,38.62,95,92,135255
1.8133,0.2395,38.49,95,92,135258
1.7889,0.2346,38.62,95,92,135262
1.7937,0.2346,38.77,95,92,135265
1.8133,0.2444,38.55,95,92,135268
1.8084,0.2297,38.58,95,92,135272
1.8231,0.2493,38.62,95,92,135275
1.7986,0.2395,38.55,95,92,135278
1.8035,0.2395,38.58,95,92,135281
1.8280,0.2493,38.52,95,92,135285
1.7986,0.2297,38.58,95,92,135288
1.8426,0.2395,38.46,95,92,135291
1.8280,0.2395,38.49,95,92,135296
1.8328,0.2395,38.58,95,92,135299
1.8671,0.2542,38.55,95,92,135302
1.8671,0.2395,38.58,95,92,135306
1.9208,0.2493,38.36,95,92,135309
1.8866,0.2346,38.52,95,92,135312
1.8671,0.2395,38.71,95,92,135316
1.8524,0.2542,38.68,95,92,135319
1.8182,0.2297,38.58,95,92,135322
1.8377,0.2493,38.30,95,92,135325
1.7889,0.2395,38.49,95,92,135329
1.7498,0.2346,38.55,95,92,135332
1.7400,0.2346,38.58,95,92,135335
1.7302,0.2297,38.65,95,92,135340
1.7644,0.2493,38.43,95,92,135343
1.7400,0.2444,38.55,95,92,135346
1.7253,0.2395,38.49,95,92,135350
1.7253,0.2395,38.58,95,92,135353
1.6813,0.2395,38.62,95,92,135356
1.6960,0.2493,38.52,95,92,135360
1.6618,0.2395,38.58,95,92,135363
1.6911,0.2395,38.46,95,92,135366
1.6764,0.2395,38.52,95,92,135369
1.6813,0.2444,38.62,95,92,135373
1.7009,0.2395,38.49,95,92,135376
1.6813,0.2395,38.58,95,92,135379
1.7058,0.2444,38.46,95,92,135384
1.6813,0.2297,38.55,95,92,135387
1.6813,0.2395,38.62,95,92,135390
1.7009,0.2444,38.49,95,92,135394
1.6911,0.2395,38.62,95,92,135397
1.7351,0.2737,38.33,95,92,135400
1.7253,0.2395,38.65,95,92,135404
1.7498,0.2444,38.62,95,92,135407
1.7791,0.2297,38.55,95,92,135410
1.7791,0.2444,38.62,95,92,135413
1.8671,0.2493,38.33,95,92,135417
1.8915,0.2444,38.46,95,92,135420
1.9892,0.2346,38.58,95,92,135424
2.1652,0.2444,38.58,95,92,135428
2.3656,0.2395,38.58,95,92,135431
2.7028,0.2590,38.40,95,92,135434
2.9130,0.2493,38.58,95,92,135438
3.1281,0.2639,38.55,95,92,135441
3.2502,0.2297,38.58,95,92,135444
3.2014,0.2395,38.65,95,92,135448
3.0401,0.2493,38.43,95,92,135451
2.6540,0.2395,38.55,95,92,135454
2.3216,0.2395,38.49,95,92,135457
2.0283,0.2395,38.62,95,92,135461
1.7498,0.2395,38.74,95,92,135464
1.5738,0.2395,38.52,95,92,135468
1.4223,0.2395,38.58,95,92,135472
1.3343,0.2493,38.55,95,92,135475
1.2561,0.2297,38.62,95,92,135478
1.2317,0.2395,38.58,95,92,135482
1.2463,0.2444,38.46,95,92,135485
1.2219,0.2395,38.68,95,92,135488
1.2610,0.2590,38.40,95,92,135492
1.3050,0.2444,38.58,95,92,135495
1.3148,0.2346,38.68,95,92,135498
1.3441,0.2590,38.49,95,92,135501
1.3685,0.2395,38.62,95,92,135505
1.3930,0.2444,38.33,95,92,135508
1.3881,0.2444,38.55,95,92,135512
1.4027,0.2297,38.62,95,92,135516
1.4321,0.2493,38.52,95,92,135519
1.4418,0.2346,38.62,95,92,135522
1.5054,0.2493,38.33,95,92,135526
1.4858,0.2395,38.49,95,92,135529
1.4907,0.2297,38.58,95,92,135532
1.5152,0.2395,38.58,95,92,135536
