2.131,0.2297,37.56,67,98,43797
2.2825,0.2102,37.49,67,98,43800
2.4242,0.2542,37.62,67,98,43803
2.566,0.2346,37.62,67,98,43806
2.6979,0.2346,37.46,67,98,43810
2.6588,0.2297,37.53,67,98,43813
2.5171,0.2248,37.53,67,98,43816
2.2874,0.2199,37.59,67,98,43820
2.0577,0.2199,37.62,67,98,43824
1.9208,0.2395,36.73,67,98,43827
1.7644,0.2297,37.59,67,98,43830
1.6813,0.2248,37.56,67,98,43833
1.6178,0.2346,37.59,67,98,43837
1.5885,0.2248,37.68,67,98,43840
1.6325,0.2346,37.4,67,98,43843
1.6178,0.2395,37.56,67,98,43846
1.6276,0.2248,37.56,67,98,43850
1.6276,0.2297,37.59,67,98,43853
1.6227,0.2248,37.62,67,98,43856
1.6618,0.2395,37.4,67,98,43859
1.6471,0.2297,37.62,67,98,43864
1.6618,0.2248,37.53,67,98,43867
1.6911,0.2297,37.62,67,98,43870
1.7155,0.2248,37.62,67,98,43873
1.7693,0.2395,37.46,67,98,43877
1.7204,0.2346,37.59,67,98,43880
1.7009,0.2151,37.56,67,98,43883
1.7009,0.2297,37.62,67,98,43886
1.7107,0.2248,37.62,67,98,43890
1.8084,0.2395,37.43,67,98,43893
1.7498,0.2346,37.53,67,98,43896
1.74,0.2248,37.74,67,98,43899
1.7449,0.2297,37.62,67,98,43904
1.7546,0.2199,37.62,67,98,43907
1.7937,0.2444,37.74,67,98,43910
1.7595,0.2346,37.65,67,98,43913
1.7595,0.2248,37.59,67,98,43917
1.7595,0.2346,37.62,67,98,43920
1.7742,0.2297,37.65,67,98,43923
1.8426,0.2444,37.46,67,98,43926
1.8084,0.2346,37.59,67,98,43930
1.8084,0.2346,37.59,67,98,43933
1.8133,0.2297,37.62,67,98,43936
1.8133,0.2248,37.65,67,98,43939
1.8768,0.2395,37.4,67,98,43943
1.8719,0.2297,37.53,67,98,43947
1.8426,0.2199,37.59,67,98,43950
1.8524,0.2297,37.62,67,98,43953
1.8524,0.2297,37.62,67,98,43957
1.8964,0.2493,37.4,67,98,43960
1.8622,0.2297,37.49,67,98,43963
1.8573,0.2199,37.62,67,98,43966
1.8719,0.2297,37.62,67,98,43970
1.8817,0.2297,37.65,67,98,43973
1.9648,0.2786,37.37,67,98,43976
1.9599,0.2297,37.59,67,98,43979
1.9746,0.2199,37.65,67,98,43983
1.9892,0.2297,37.62,67,98,43986
1.9648,0.2199,37.65,67,98,43990
1.9892,0.2444,37.37,67,98,43993
1.9257,0.2297,37.49,67,98,43997
1.911,0.2199,37.62,67,98,44000
1.9208,0.2346,37.59,67,98,44003
1.9208,0.2248,37.65,67,98,44006
2.0088,0.2395,37.4,67,98,44010
1.9697,0.2542,37.53,67,98,44013
1.9795,0.2248,37.77,67,98,44016
1.999,0.2297,37.65,67,98,44019
2.0137,0.2248,37.68,67,98,44023
2.087,0.2346,37.34,67,98,44026
2.0577,0.2297,37.56,67,98,44029
2.0577,0.2248,37.65,67,98,44033
2.087,0.2395,37.65,67,98,44037
2.0919,0.2297,37.65,67,98,44040
2.1505,0.2346,37.4,67,98,44043
2.1114,0.2297,37.53,67,98,44046
2.1212,0.2248,37.68,67,98,44049
2.1505,0.2346,37.59,67,98,44053
2.1554,0.2297,37.74,67,98,44056
2.2287,0.2346,37.37,67,98,44059
2.2239,0.2248,37.59,67,98,44062
2.2287,0.2248,37.65,67,98,44066
2.2532,0.2346,37.62,67,98,44069
2.175,0.2346,37.65,67,98,44073
2.1652,0.2297,37.65,67,98,44077
2.2239,0.2444,37.46,67,98,44080
2.1603,0.2346,37.59,67,98,44083
2.1261,0.2199,37.62,67,98,44087
2.1017,0.2297,37.65,67,98,44090
2.0674,0.2346,37.68,67,98,44093
2.0919,0.2444,37.34,67,98,44096
2.0088,0.2297,37.56,67,98,44100
1.9453,0.2248,37.62,67,98,44103
1.9013,0.2297,37.65,67,98,44106
1.8475,0.2248,36.91,67,98,44109
1.8524,0.2444,37.43,67,98,44113
1.784,0.2346,37.56,67,98,44116
1.7302,0.2248,37.59,67,98,44120
1.7107,0.2297,37.87,67,98,44123
1.6862,0.2297,37.65,67,98,44127
1.7302,0.2395,37.4,67,98,44130
1.6813,0.2542,37.62,67,98,44133
1.6667,0.2248,37.65,67,98,44136
1.6618,0.2346,37.65,67,98,44139
1.6325,0.2395,37.68,67,98,44143
1.6569,0.2444,37.65,67,98,44146
1.6129,0.2297,37.77,67,98,44149
1.5982,0.2248,37.65,67,98,44152
1.5982,0.2248,37.68,67,98,44156
1.6031,0.2297,37.74,67,98,44160
1.6569,0.2444,37.37,67,98,44163
1.6373,0.2346,37.56,67,98,44166
1.6276,0.2248,37.65,67,98,44170
1.6422,0.2297,37.87,67,98,44173
1.6373,0.2297,37.71,67,98,44176
1.7107,0.2395,37.37,67,98,44179
1.6911,0.2346,37.56,67,98,44183
1.6716,0.2248,37.62,67,98,44186
1.6911,0.2297,37.71,67,98,44189
1.696,0.2102,37.71,67,98,44192
1.7449,0.2395,37.37,67,98,44196
1.7155,0.2493,37.59,67,98,44199
1.7155,0.2248,37.68,67,98,44203
1.7204,0.2346,37.68,67,98,44206
1.7155,0.2248,37.68,67,98,44210
1.7742,0.2395,37.34,67,98,44213
1.7595,0.2297,37.65,67,98,44216
1.7498,0.2297,37.68,67,98,44219
1.7742,0.2395,37.68,67,98,44223
1.7644,0.2297,37.68,67,98,44226
1.8133,0.2297,37.37,67,98,44229
1.7742,0.2297,37.56,67,98,44232
1.7742,0.2493,37.68,67,98,44236
1.7791,0.2297,37.71,67,98,44239
1.7595,0.2297,37.68,67,98,44242
1.7986,0.2297,37.37,67,98,44246
1.7595,0.2542,37.62,67,98,44250
1.7644,0.2248,37.71,67,98,44253
1.7791,0.2297,37.65,67,98,44256
1.7644,0.2199,37.71,67,98,44259
1.8133,0.2395,37.4,67,98,44263
1.7791,0.2248,37.59,67,98,44266
1.7742,0.2248,37.71,67,98,44269
1.7742,0.2346,37.65,67,98,44272
1.7693,0.2297,37.71,67,98,44276
1.8133,0.2395,37.4,67,98,44279
1.7742,0.2248,37.59,67,98,44282
1.7742,0.2248,37.71,67,98,44285
1.7937,0.2346,37.53,67,98,44290
1.784,0.2297,37.74,67,98,44293
1.8328,0.2346,37.43,67,98,44296
1.7937,0.2297,37.59,67,98,44299
1.8035,0.2297,37.71,67,98,44303
1.8231,0.2346,37.65,67,98,44306
1.8182,0.2297,37.71,67,98,44309
1.8524,0.2639,37.4,67,98,44312
1.8231,0.2297,37.62,67,98,44316
1.7986,0.2297,37.71,67,98,44319
1.8182,0.2346,37.68,67,98,44322
1.8035,0.2346,37.74,67,98,44325
1.8524,0.2346,37.46,67,98,44329
1.8231,0.2248,37.65,67,98,44333
1.8231,0.2297,37.8,67,98,44336
1.8377,0.2346,37.59,67,98,44339
1.8182,0.2297,37.71,67,98,44343
1.8719,0.2346,37.43,67,98,44346
1.8719,0.2248,37.65,67,98,44349
1.9257,0.2297,37.9,67,98,44352
1.9746,0.2346,37.68,67,98,44356
1.9453,0.2346,37.71,67,98,44359
1.9306,0.2346,37.43,67,98,44362
1.8426,0.2297,37.56,67,98,44365
1.7742,0.2297,37.71,67,98,44369
1.7644,0.2346,37.65,67,98,44372
1.7351,0.2248,37.71,67,98,44376
1.7595,0.2346,37.49,67,98,44379
1.7204,0.2297,37.9,67,98,44383
1.7302,0.2297,37.77,67,98,44386
1.7889,0.2444,37.59,67,98,44389
1.7986,0.2297,37.74,67,98,44392
1.8622,0.2346,37.46,67,98,44396
1.8475,0.2346,37.71,67,98,44399
1.8182,0.2297,37.71,67,98,44402
1.8328,0.2346,37.65,67,98,44405
1.8231,0.2297,37.74,67,98,44409
1.8573,0.2346,37.43,67,98,44412
1.8377,0.2444,37.56,67,98,44416
1.828,0.2297,37.74,67,98,44419
1.8475,0.2297,37.62,67,98,44423
1.8573,0.2297,37.74,67,98,44426
1.8475,0.2835,37.49,67,98,44429
1.8035,0.2297,37.71,67,98,44432
1.8084,0.2297,37.71,67,98,44436
1.8231,0.2395,37.62,67,98,44439
1.8035,0.2297,37.74,67,98,44442
1.828,0.2297,37.49,67,98,44445
1.7889,0.2297,37.74,67,98,44449
1.7937,0.2248,37.71,67,98,44452
1.828,0.259,37.68,67,98,44455
1.828,0.2297,37.74,67,98,44459
1.8719,0.2346,37.49,67,98,44463
1.8573,0.2346,37.59,67,98,44466
1.8524,0.2297,37.77,67,98,44469
1.8622,0.2297,37.62,67,98,44472
1.8377,0.2248,37.74,67,98,44476
1.8622,0.2346,37.53,67,98,44479
1.8328,0.2297,37.71,67,98,44482
1.8426,0.2297,37.74,67,98,44485
1.8719,0.2346,37.59,67,98,44489
1.8622,0.2346,37.74,67,98,44492
1.8915,0.2297,37.49,67,98,44495
1.8524,0.2297,37.74,67,98,44498
1.8475,0.2199,37.74,67,98,44503
1.8426,0.259,37.59,67,98,44506
1.8084,0.2297,37.83,67,98,44509
1.8328,0.2297,37.53,67,98,44512
1.8133,0.2346,37.68,67,98,44516
1.8035,0.2297,37.77,67,98,44519
1.8182,0.2297,37.62,67,98,44522
1.8035,0.2297,37.74,67,98,44525
1.8328,0.2297,37.49,67,98,44528
1.8133,0.2297,37.77,67,98,44532
1.828,0.2297,37.74,67,98,44535
1.8524,0.2444,37.59,67,98,44538
1.8426,0.2297,37.74,67,98,44541
1.9062,0.2346,37.56,67,98,44546
1.8475,0.2346,37.74,67,98,44549
1.8573,0.2297,37.74,67,98,44552
1.8866,0.2346,37.62,67,98,44555
1.8768,0.2297,37.74,67,98,44559
1.911,0.2395,37.59,67,98,44562
1.9013,0.2297,37.25,67,98,44565
1.911,0.2297,37.77,67,98,44568
1.9306,0.2346,37.62,67,98,44572
1.9062,0.2248,37.71,67,98,44575
1.9013,0.2297,37.59,67,98,44578
1.8573,0.2297,37.74,67,98,44581
1.8133,0.2493,37.74,67,98,44585
1.828,0.2297,37.71,67,98,44589
1.8377,0.2102,37.74,67,98,44592
1.8915,0.2346,37.62,67,98,44595
1.8915,0.2297,37.74,67,98,44599
1.911,0.2297,37.77,67,98,44602
1.9404,0.2297,37.62,67,98,44605
1.9257,0.2297,37.74,67,98,44608
1.955,0.2199,37.62,67,98,44612
1.9404,0.2248,37.77,67,98,44615
1.955,0.2297,37.8,67,98,44618
1.9892,0.2297,37.62,67,98,44621
1.9941,0.2297,37.71,67,98,44625
2.0381,0.2346,37.71,67,98,44628
2.0137,0.2297,37.96,67,98,44632
2.0283,0.2297,37.65,67,98,44635
2.0332,0.2639,37.71,67,98,44639
2.0088,0.2297,37.74,67,98,44642
1.9941,0.2346,37.68,67,98,44645
1.9208,0.2297,37.8,67,98,44648
1.8866,0.2297,37.74,67,98,44652
1.8915,0.2395,37.62,67,98,44655
1.8426,0.2297,37.74,67,98,44658
1.8475,0.2395,37.62,67,98,44661
1.7986,0.2493,37.77,67,98,44665
1.7742,0.2297,37.77,67,98,44668
1.784,0.2346,37.71,67,98,44672
1.7644,0.2346,37.77,67,98,44675
1.784,0.2346,37.62,67,98,44679
1.7595,0.2297,37.77,67,98,44682
1.7595,0.2248,37.83,67,98,44685
1.7644,0.2297,37.77,67,98,44689
1.7742,0.2297,37.68,67,98,44692
1.74,0.2102,37.77,67,98,44695
1.784,0.2297,37.59,67,98,44698
1.8035,0.2297,37.71,67,98,44702
1.8719,0.2297,37.77,67,98,44705
1.9844,0.2346,37.65,67,98,44708
2.1017,0.2297,37.83,67,98,44711
2.2825,0.2346,37.56,67,98,44716
2.4242,0.2346,37.77,67,98,44719
2.5806,0.2297,37.8,67,98,44722
2.7077,0.2297,37.65,67,98,44725
2.7126,0.2297,37.77,67,98,44729
2.6637,0.2297,37.62,67,98,44732
2.4438,0.2297,37.9,67,98,44735
2.2239,0.2346,37.8,67,98,44738
2.0235,0.2346,37.99,67,98,44742
1.8035,0.2297,37.77,67,98,44745
1.6862,0.2346,37.62,67,98,44748
1.5445,0.2248,37.77,67,98,44751
1.4907,0.2297,37.8,67,98,44755
1.4907,0.2297,37.68,67,98,44759
1.5005,0.2248,37.77,67,98,44762
1.5591,0.2346,37.65,67,98,44765
1.564,0.2199,37.77,67,98,44769
1.5982,0.2297,37.83,67,98,44772
1.6373,0.2297,37.71,67,98,44775
1.652,0.2248,37.77,67,98,44778
1.696,0.2395,37.65,67,98,44781
1.6813,0.2346,37.77,67,98,44785
1.6862,0.2297,37.8,67,98,44788
1.7449,0.2444,37.65,67,98,44791
1.6764,0.2248,37.77,67,98,44794
1.7009,0.2395,37.87,67,98,44798
1.6813,0.2297,37.77,67,98,44802
1.6911,0.2297,37.8,67,98,44805
1.7204,0.2346,37.74,67,98,44808
1.7253,0.2297,37.8,67,98,44812
1.7546,0.2346,37.62,67,98,44815
1.74,0.2297,37.83,67,98,44818
1.7498,0.2297,37.77,67,98,44821
1.7595,0.2346,37.71,67,98,44825
1.7498,0.2248,37.77,67,98,44828
1.7742,0.2297,37.65,67,98,44831
1.7546,0.2297,37.8,67,98,44834
1.7742,0.2199,37.8,67,98,44838
1.8133,0.2395,37.49,67,98,44841
1.7937,0.2297,37.83,67,98,44845
1.8133,0.2346,37.68,67,98,44848
1.8084,0.2346,37.8,67,98,44852
1.8426,0.2297,37.8,67,98,44855
1.8866,0.2346,37.71,67,98,44858
1.8964,0.2248,37.77,67,98,44861
1.9159,0.2346,37.65,67,98,44865
1.8768,0.2346,37.8,67,98,44868
1.8866,0.2248,37.77,67,98,44871
1.8622,0.2639,37.62,67,98,44874
1.8377,0.2297,37.77,67,98,44878
1.8524,0.2346,37.65,67,98,44881
1.828,0.2346,37.8,67,98,44884
1.8573,0.2297,37.71,67,98,44888
1.9062,0.2395,37.62,67,98,44892
1.8964,0.2346,37.77,67,98,44895
1.9501,0.2346,37.68,67,98,44898
1.8964,0.2297,37.8,67,98,44901
1.8964,0.2297,37.8,67,98,44905
1.9306,0.2444,37.68,67,98,44908
1.9159,0.2297,37.87,67,98,44911
1.9355,0.2346,37.68,67,98,44914
1.9355,0.2346,37.77,67,98,44918
1.9404,0.2542,37.83,67,98,44921
1.9844,0.2395,37.83,67,98,44924
1.9599,0.2297,37.77,67,98,44928
1.9844,0.2346,37.68,67,98,44932
1.9746,0.2346,37.8,67,98,44935
1.999,0.2297,37.83,67,98,44938
2.0528,0.2395,37.62,67,98,44941
2.0772,0.2346,37.77,67,98,44945
2.0577,0.2297,37.68,67,98,44948
2.0381,0.2346,37.8,67,98,44951
2.0332,0.2297,37.87,67,98,44954
2.087,0.2395,37.68,67,98,44957
2.0821,0.2444,37.77,67,98,44961
2.1114,0.2297,37.77,67,98,44964
2.1261,0.2297,37.87,67,98,44967
2.1359,0.2346,37.8,67,98,44971
2.1848,0.2444,37.68,67,98,44975
2.1554,0.2346,37.87,67,98,44978
2.1603,0.2346,37.71,67,98,44981
2.1652,0.2346,37.8,67,98,44984
2.1701,0.2297,37.87,67,98,44988
2.2287,0.2395,37.62,67,98,44991
2.1994,0.2346,37.74,67,98,44994
2.1799,0.2297,38.08,67,98,44997
2.1603,0.2346,37.83,67,98,45001
2.1408,0.2248,37.83,67,98,45004
2.1945,0.2444,37.65,67,98,45007
2.1554,0.2395,37.71,67,98,45010
2.1261,0.2542,37.8,67,98,45015
2.1065,0.2297,37.71,67,98,45018
2.0772,0.2346,37.8,67,98,45021
2.1017,0.2542,37.62,67,98,45024
2.0186,0.2346,37.07,67,98,45028
1.9648,0.2102,37.8,67,98,45031
1.9306,0.2346,37.8,67,98,45034
1.8915,0.2297,37.8,67,98,45037
1.9062,0.2493,37.59,67,98,45041
1.8182,0.2346,37.74,67,98,45044
1.7546,0.2248,37.77,67,98,45047
1.7155,0.2297,37.8,67,98,45050
1.6569,0.2199,37.8,67,98,45054
1.6813,0.2493,37.93,67,98,45058
1.6276,0.2297,37.71,67,98,45061
1.608,0.2346,37.8,67,98,45064
1.608,0.2346,37.83,67,98,45067
1.5982,0.2297,37.83,67,98,45071
1.6569,0.2444,37.56,67,98,45074
1.6373,0.2444,37.71,67,98,45077
1.6276,0.2248,37.16,67,98,45080
1.6227,0.2297,37.83,67,98,45084
1.608,0.2297,37.8,67,98,45087
1.652,0.2395,37.56,67,98,45090
1.6227,0.2297,37.71,67,98,45093
1.6373,0.2248,37.83,67,98,45097
1.6618,0.2346,37.8,67,98,45101
1.6618,0.2639,37.83,67,98,45104
1.7058,0.2395,37.49,67,98,45107
1.6667,0.2346,37.77,67,98,45111
1.6667,0.2297,37.83,67,98,45114
1.6764,0.2395,37.77,67,98,45117
1.6716,0.2297,37.99,67,98,45120
1.7253,0.2395,37.53,67,98,45124
1.7155,0.2346,37.74,67,98,45127
1.6862,0.2639,37.87,67,98,45130
1.696,0.2346,37.9,67,98,45133
1.7009,0.2297,37.87,67,98,45137
1.7546,0.2346,37.62,67,98,45140
1.7302,0.2688,37.71,67,98,45144
1.74,0.2297,37.83,67,98,45147
1.7546,0.2395,37.77,67,98,45151
1.7302,0.2346,37.87,67,98,45154
1.7693,0.2395,37.56,67,98,45157
1.7253,0.2297,37.77,67,98,45160
1.7302,0.2297,37.83,67,98,45164
1.7351,0.2444,37.77,67,98,45167
1.7253,0.2297,37.9,67,98,45170
1.7693,0.2395,37.56,67,98,45173
1.7644,0.2346,37.74,67,98,45177
1.7449,0.2395,37.83,67,98,45180
1.784,0.259,37.77,67,98,45184
1.784,0.2346,37.87,67,98,45187
1.8377,0.2395,37.56,67,98,45191
1.7791,0.2346,37.77,67,98,45194
1.7644,0.2297,37.93,67,98,45197
1.7742,0.2395,37.74,67,98,45200
1.7498,0.2297,37.83,67,98,45204
1.8035,0.2444,37.59,67,98,45207
1.7644,0.2346,37.74,67,98,45210
1.7742,0.2297,37.83,67,98,45213
1.7791,0.2297,37.83,67,98,45217
1.7693,0.2346,37.87,67,98,45220
1.8133,0.2395,37.56,67,98,45223
1.8084,0.2346,37.65,67,98,45227
1.8231,0.2297,37.83,67,98,45231
1.8524,0.2297,37.8,67,98,45234
1.8231,0.2297,37.87,67,98,45237
1.8328,0.2395,37.56,67,98,45240
1.7742,0.2248,37.77,67,98,45244
1.7889,0.2297,37.83,67,98,45247
1.7693,0.2297,37.8,67,98,45250
1.7595,0.2297,37.87,67,98,45253
1.8524,0.2395,37.59,67,98,45257
1.7937,0.2199,37.8,67,98,45260
1.8133,0.2297,38.02,67,98,45263
1.8328,0.2346,37.8,67,98,45266
1.8084,0.2346,37.87,67,98,45271
1.828,0.2346,37.62,67,98,45274
1.7937,0.2346,37.8,67,98,45277
1.7986,0.2297,37.87,67,98,45280
1.8328,0.2346,37.8,67,98,45284
1.7791,0.2297,37.71,67,98,45287
1.8133,0.2297,37.65,67,98,45290
1.8622,0.2444,37.62,67,98,45294
1.8231,0.2346,37.68,67,98,45297
1.7986,0.2248,37.83,67,98,45300
1.7791,0.2346,37.83,67,98,45303
1.7742,0.2248,37.87,67,98,45307
1.828,0.2493,37.59,67,98,45310
1.7986,0.2346,37.77,67,98,45314
1.7889,0.2199,37.83,67,98,45317
1.8035,0.2346,37.87,67,98,45321
1.8035,0.2297,37.9,67,98,45324
1.8719,0.2395,37.56,67,98,45327
1.8671,0.2346,37.74,67,98,45330
1.8377,0.2248,37.96,67,98,45334
1.8377,0.2346,37.87,67,98,45337
1.828,0.2297,37.9,67,98,45340
1.8475,0.2395,37.59,67,98,45343
1.8035,0.2297,37.71,67,98,45347
1.8035,0.2297,37.93,67,98,45350
1.8524,0.2346,37.83,67,98,45353
1.8231,0.2346,37.9,67,98,45357
1.8719,0.2395,37.07,67,98,45361
1.8377,0.2346,37.8,67,98,45364
1.8328,0.2199,37.9,67,98,45367
1.8475,0.2346,37.83,67,98,45370
1.8377,0.2297,37.9,67,98,45374
1.9159,0.2395,37.59,67,98,45377
1.8719,0.2346,37.8,67,98,45380
1.8426,0.2297,37.56,67,98,45383
1.8622,0.2297,37.83,67,98,45387
1.8768,0.2346,37.9,67,98,45390
1.9062,0.2395,37.83,67,98,45393
1.8524,0.2297,37.74,67,98,45396
1.828,0.2297,37.9,67,98,45401
1.8133,0.2395,37.83,67,98,45404
1.7937,0.2542,37.9,67,98,45407
1.8524,0.2395,37.62,67,98,45410
1.8475,0.2297,37.8,67,98,45414
1.828,0.2346,37.9,67,98,45417
1.8377,0.2346,37.83,67,98,45420
1.8133,0.2346,37.9,67,98,45423
1.8573,0.2444,37.62,67,98,45427
1.828,0.2102,37.83,67,98,45430
1.828,0.2297,38.11,67,98,45433
1.8426,0.2297,37.83,67,98,45436
1.8182,0.2102,37.9,67,98,45441
1.8475,0.2395,37.65,67,98,45444
1.7986,0.2297,37.9,67,98,45447
1.7986,0.2297,37.9,67,98,45450
1.8182,0.2346,37.87,67,98,45454
1.8133,0.2297,37.99,67,98,45457
1.8573,0.2297,37.62,67,98,45460
1.8328,0.2346,37.8,67,98,45463
1.8328,0.2297,37.87,67,98,45467
1.8573,0.2395,37.8,67,98,45470
1.8475,0.2297,37.93,67,98,45473
1.8964,0.2395,37.62,67,98,45476
1.8524,0.2248,37.87,67,98,45480
1.8524,0.2297,38.11,67,98,45484
1.8915,0.2395,37.83,67,98,45487
1.9062,0.2346,37.9,67,98,45490
1.9257,0.2444,37.65,67,98,45494
1.8719,0.2248,37.83,67,98,45497
1.8573,0.2297,37.9,67,98,45500
1.8671,0.2346,37.83,67,98,45503
1.8426,0.2346,37.9,67,98,45507
1.8866,0.2395,37.59,67,98,45510
1.8719,0.2395,37.8,67,98,45513
1.8866,0.2346,37.9,67,98,45516
1.8866,0.2444,37.83,67,98,45520
1.8768,0.2297,37.9,67,98,45523
1.9257,0.2346,37.65,67,98,45527
1.911,0.2346,37.9,67,98,45530
1.9306,0.2297,37.93,67,98,45534
1.9648,0.2395,37.8,67,98,45537
1.9453,0.2346,37.9,67,98,45540
1.999,0.2346,37.68,67,98,45543
1.9697,0.2297,37.9,67,98,45547
1.9892,0.2639,37.9,67,98,45550
2.0137,0.2395,37.93,67,98,45553
1.9941,0.2297,37.9,67,98,45556
2.0186,0.2346,37.65,67,98,45559
1.9746,0.2297,37.87,67,98,45563
1.9404,0.2346,37.9,67,98,45566
1.9355,0.2346,37.8,67,98,45570
1.8964,0.2297,37.87,67,98,45573
1.9062,0.2346,37.71,67,98,45577
1.8573,0.2346,37.93,67,98,45580
1.8377,0.2444,37.9,67,98,45583
1.8377,0.2346,37.74,67,98,45586
1.8084,0.2297,37.9,67,98,45590
1.8084,0.2639,37.74,67,98,45593
1.7644,0.2297,37.93,67,98,45596
1.7546,0.2346,37.93,67,98,45599
1.7889,0.2346,37.8,67,98,45603
1.7546,0.2248,37.93,67,98,45606
1.784,0.2346,37.71,67,98,45609
1.7644,0.2297,37.87,67,98,45613
1.7595,0.2346,37.9,67,98,45617
1.7693,0.2346,37.77,67,98,45620
1.7546,0.2297,37.99,67,98,45623
1.7742,0.2346,37.71,67,98,45626
1.7498,0.2346,37.9,67,98,45630
1.7791,0.2542,37.87,67,98,45633
1.8377,0.2346,37.87,67,98,45636
1.8817,0.2346,37.93,67,98,45639
1.9697,0.2395,37.77,67,98,45643
2.0283,0.2297,37.93,67,98,45646
2.1408,0.2297,37.93,67,98,45649
2.3167,0.2395,37.83,67,98,45652
2.4291,0.2346,37.96,67,98,45657
2.5855,0.2346,37.74,67,98,45660
2.6149,0.2297,37.83,67,98,45663
2.5611,0.2346,37.93,67,98,45666
2.4145,0.2346,37.8,67,98,45670
2.175,0.2297,37.77,67,98,45673
1.9844,0.2346,37.77,67,98,45676
1.7986,0.2346,37.9,67,98,45679
1.6667,0.2639,37.93,67,98,45683
1.608,0.2297,37.9,67,98,45686
1.5689,0.2395,37.9,67,98,45689
1.5885,0.2297,37.9,67,98,45692
1.5689,0.2346,37.93,67,98,45697
1.5934,0.2346,37.93,67,98,45700
1.6373,0.2444,37.8,67,98,45703
1.6276,0.2297,37.87,67,98,45706
1.6764,0.2297,37.8,67,98,45710
1.6618,0.2199,37.9,67,98,45713
1.6764,0.2297,37.8,67,98,45716
1.7107,0.2297,37.87,67,98,45719
1.7204,0.2346,37.93,67,98,45723
1.74,0.2542,37.8,67,98,45726
1.7107,0.2297,37.96,67,98,45729
1.7058,0.2346,37.96,67,98,45732
1.7204,0.2395,37.83,67,98,45736
1.7155,0.2297,37.96,67,98,45740
1.74,0.2395,37.83,67,98,45743
1.7107,0.2346,37.93,67,98,45746
1.7351,0.2297,37.9,67,98,45750
1.7791,0.2395,37.77,67,98,45753
1.7644,0.2297,37.93,67,98,45756
1.7889,0.2395,37.8,67,98,45759
1.74,0.2297,37.87,67,98,45763
1.7302,0.2297,37.93,67,98,45766
1.74,0.2395,37.9,67,98,45769
1.7302,0.2346,38.15,67,98,45772
1.7644,0.2297,37.8,67,98,45775
1.7498,0.2395,37.93,67,98,45779
1.7693,0.2444,37.96,67,98,45783
1.8035,0.2346,38.11,67,98,45786
1.8035,0.2297,37.96,67,98,45789
1.8182,0.2639,37.77,67,98,45793
1.7986,0.2493,37.99,67,98,45796
1.8084,0.2297,37.96,67,98,45799
1.8475,0.2346,37.8,67,98,45802
1.828,0.259,37.9,67,98,45806
1.8573,0.2297,37.8,67,98,45809
1.8426,0.2395,37.99,67,98,45812
1.8622,0.2297,37.96,67,98,45815
1.9013,0.2346,37.83,67,98,45819
1.9013,0.2346,37.9,67,98,45822
1.9257,0.2395,37.99,67,98,45826
1.9062,0.2297,37.96,67,98,45829
1.9159,0.2346,37.9,67,98,45833
1.9306,0.2444,37.87,67,98,45836
1.9013,0.2297,38.11,67,98,45839
1.911,0.2297,37.8,67,98,45842
1.9013,0.2346,37.96,67,98,45846
1.9013,0.2297,37.93,67,98,45849
1.955,0.2395,37.83,67,98,45852
1.9501,0.2297,37.93,67,98,45855
1.9746,0.2346,37.8,67,98,45859
1.9599,0.2297,38.08,67,98,45862
1.955,0.2346,37.96,67,98,45865
1.999,0.2493,37.77,67,98,45869
1.9892,0.2346,37.9,67,98,45873
2.0137,0.2346,37.83,67,98,45876
2.0039,0.2248,37.96,67,98,45879
2.0235,0.2297,37.96,67,98,45882
2.0723,0.2395,37.83,67,98,45886
2.0723,0.2395,37.93,67,98,45889
2.0968,0.2297,37.87,67,98,45892
2.0968,0.2346,37.96,67,98,45895
2.1065,0.2297,37.99,67,98,45898
2.1701,0.2297,37.8,67,98,45902
2.2092,0.2395,37.9,67,98,45906
2.1896,0.2297,37.96,67,98,45911
2.2239,0.2346,37.8,67,98,45914
2.1994,0.2297,37.96,67,98,45917
2.2043,0.2297,37.99,67,98,45920
2.2336,0.2395,37.9,67,98,45924
2.219,0.2346,37.96,67,98,45927
2.2336,0.2297,37.8,67,98,45930
2.1848,0.2297,37.99,67,98,45933
2.1505,0.2248,38.05,67,98,45937
2.1457,0.2395,37.8,67,98,45940
2.0723,0.2346,37.93,67,98,45943
2.0479,0.2346,37.8,67,98,45946
1.9892,0.2297,37.99,67,98,45950
1.9648,0.2346,37.99,67,98,45954
1.955,0.2395,37.83,67,98,45957
1.9062,0.2346,37.99,67,98,45960
1.8719,0.2297,37.83,67,98,45964
1.7986,0.2346,37.93,67,98,45967
1.7791,0.2346,37.96,67,98,45970
1.7546,0.2395,37.87,67,98,45973
1.7204,0.2346,37.99,67,98,45977
1.6911,0.2346,37.83,67,98,45980
1.6422,0.2297,37.96,67,98,45983
1.6129,0.2346,37.99,67,98,45986
1.6276,0.2395,37.87,67,98,45990
1.6031,0.2346,37.96,67,98,45993
1.6227,0.2297,37.83,67,98,45997
1.608,0.2346,37.96,67,98,46000
1.6129,0.2297,37.99,67,98,46004
1.6422,0.2395,37.77,67,98,46007
1.6178,0.2297,37.96,67,98,46010
1.6325,0.2346,37.9,67,98,46013
1.6129,0.2297,37.9,67,98,46017
1.6129,0.2297,37.99,67,98,46020
1.652,0.2395,37.87,67,98,46023
1.6373,0.2248,38.05,67,98,46026
1.652,0.2346,37.87,67,98,46029
1.6471,0.2346,37.99,67,98,46033
1.6569,0.2395,37.99,67,98,46036
1.696,0.2395,37.77,67,98,46040
1.6764,0.2346,37.93,67,98,46043
1.696,0.2346,37.87,67,98,46047
1.696,0.2395,37.99,67,98,46050
1.696,0.2297,38.02,67,98,46053
1.7302,0.2395,37.87,67,98,46056
1.7107,0.2395,37.93,67,98,46060
1.7155,0.2297,37.83,67,98,46063
1.7204,0.2346,37.99,67,98,46066
1.7351,0.2346,37.96,67,98,46069
1.784,0.2395,37.87,67,98,46073
1.7449,0.2346,37.96,67,98,46076
1.74,0.2297,37.9,67,98,46080
1.7449,0.2346,37.99,67,98,46083
1.7498,0.2297,37.99,67,98,46087
1.8084,0.2395,37.8,67,98,46090
1.7986,0.2346,37.93,67,98,46093
1.7937,0.2297,37.87,67,98,46096
1.7742,0.2346,37.87,67,98,46100
1.7546,0.2297,37.99,67,98,46103
1.7742,0.2444,37.83,67,98,46106
1.7498,0.2395,37.83,67,98,46109
1.7546,0.2297,37.93,67,98,46113
1.7644,0.2346,37.96,67,98,46116
1.7889,0.2346,37.99,67,98,46119
1.8133,0.2493,37.87,67,98,46123
1.784,0.2395,38.05,67,98,46127
1.7644,0.2346,37.9,67,98,46130
1.7644,0.2395,37.96,67,98,46133
1.7595,0.2297,37.99,67,98,46136
1.8035,0.2395,37.74,67,98,46140
1.7791,0.2395,37.93,67,98,46143
1.7644,0.2297,37.9,67,98,46146
1.7791,0.2297,37.96,67,98,46149
1.7889,0.2346,37.99,67,98,46153
1.8475,0.2493,37.8,67,98,46156
1.8133,0.2395,37.9,67,98,46159
1.828,0.2346,37.9,67,98,46162
1.7889,0.2346,37.9,67,98,46167
1.784,0.2297,38.08,67,98,46170
1.8573,0.2493,37.77,67,98,46173
1.8084,0.2395,37.9,67,98,46176
1.8035,0.2297,37.96,67,98,46180
1.8133,0.2297,37.99,67,98,46183
1.8084,0.2395,37.99,67,98,46186
1.8524,0.2493,37.83,67,98,46189
1.8035,0.2395,37.93,67,98,46193
1.7889,0.2297,37.93,67,98,46196
1.7986,0.2395,37.99,67,98,46199
1.7986,0.2688,37.99,67,98,46202
1.8573,0.2493,37.74,67,98,46206
1.8231,0.2346,37.9,67,98,46210
1.7986,0.2297,37.96,67,98,46213
1.7937,0.2639,37.99,67,98,46216
1.7791,0.2395,37.99,67,98,46220
1.8328,0.2493,37.56,67,98,46223
1.7986,0.2297,37.93,67,98,46226
1.784,0.2199,37.96,67,98,46229
1.7986,0.2346,37.96,67,98,46233
1.7986,0.2297,38.02,67,98,46236
1.8524,0.2493,37.74,67,98,46239
1.8035,0.2346,37.9,67,98,46242
1.8035,0.2297,37.96,67,98,46246
1.8182,0.2297,37.96,67,98,46249
1.8035,0.2346,37.99,67,98,46253
1.8524,0.2444,37.83,67,98,46256
1.8084,0.2346,37.87,67,98,46260
1.8035,0.2248,37.99,67,98,46263
1.8084,0.2395,37.99,67,98,46266
1.8035,0.2297,37.99,67,98,46269
1.8671,0.2444,37.71,67,98,46273
1.828,0.2346,37.9,67,98,46276
1.828,0.2297,37.9,67,98,46279
1.8328,0.2346,37.34,67,98,46282
1.8182,0.2346,38.02,67,98,46285
1.8671,0.2395,37.71,67,98,46289
1.8182,0.2297,37.99,67,98,46292
1.8084,0.2297,38.02,67,98,46296
1.828,0.2346,37.99,67,98,46299
1.828,0.2297,38.05,67,98,46303
1.9306,0.2297,37.71,67,98,46306
1.8622,0.2346,37.93,67,98,46309
1.8475,0.2346,37.99,67,98,46312
1.8328,0.2346,37.99,67,98,46316
1.7986,0.2297,38.02,67,98,46319
1.8377,0.2444,37.74,67,98,46322
1.8035,0.2346,37.96,67,98,46325
1.7986,0.2297,37.99,67,98,46329
1.8182,0.2346,37.99,67,98,46332
1.8133,0.2542,37.96,67,98,46336
1.8622,0.2395,37.8,67,98,46339
1.8231,0.2297,37.93,67,98,46343
1.828,0.2346,38.02,67,98,46346
1.8426,0.2395,38.02,67,98,46349
1.8328,0.2297,38.02,67,98,46352
1.8866,0.2444,37.77,67,98,46356
1.8377,0.2346,37.99,67,98,46359
1.8475,0.2297,37.93,67,98,46362
1.8622,0.2395,37.99,67,98,46365
1.8622,0.2297,37.99,67,98,46369
1.9159,0.2395,37.74,67,98,46372
1.8817,0.2346,37.93,67,98,46375
1.8426,0.2297,38.02,67,98,46379
1.8231,0.2395,37.99,67,98,46383
1.7889,0.2346,38.02,67,98,46386
1.8328,0.2395,37.74,67,98,46389
1.8035,0.2199,38.05,67,98,46392
1.8182,0.2346,38.05,67,98,46396
1.8524,0.2395,37.96,67,98,46399
1.8328,0.2297,38.02,67,98,46402
1.8719,0.2444,37.8,67,98,46405
1.8231,0.2542,38.05,67,98,46409
1.8231,0.2297,38.02,67,98,46412
1.8475,0.2395,37.99,67,98,46415
1.8231,0.2346,38.05,67,98,46418
1.8671,0.2444,37.77,67,98,46423
1.8475,0.2395,37.93,67,98,46426
1.8426,0.2346,38.02,67,98,46429
1.8573,0.2395,37.93,67,98,46432
1.8377,0.2493,38.02,67,98,46436
1.8817,0.2395,37.77,67,98,46439
1.8426,0.2346,37.99,67,98,46442
1.8524,0.2346,38.02,67,98,46445
1.8915,0.2395,37.93,67,98,46449
1.8768,0.2346,38.05,67,98,46452
1.9306,0.2346,37.77,67,98,46455
1.9062,0.2297,38.21,67,98,46458
1.9306,0.2297,38.02,67,98,46462
1.9697,0.2346,37.93,67,98,46466
1.9648,0.2737,38.02,67,98,46469
2.0137,0.2346,37.8,67,98,46472
2.043,0.2346,37.9,67,98,46476
2.0283,0.2297,38.15,67,98,46479
2.0528,0.2395,37.96,67,98,46482
2.0186,0.2346,38.05,67,98,46485
2.0235,0.2346,37.87,67,98,46488
1.9746,0.2297,37.99,67,98,46492
1.9599,0.2346,38.05,67,98,46495
1.9599,0.2346,37.34,67,98,46498
1.911,0.2346,38.02,67,98,46501
1.9062,0.2346,37.83,67,98,46505
1.8622,0.2297,38.05,67,98,46509
1.8426,0.2346,38.05,67,98,46512
1.8426,0.2395,37.9,67,98,46515
1.7351,0.2395,38.02,67,98,46520
1.7498,0.2346,38.05,67,98,46523
1.7742,0.2395,37.74,67,98,46527
1.7449,0.2297,37.99,67,98,46530
1.7742,0.2346,38.05,67,98,46533
1.7546,0.2395,37.93,67,98,46536
1.7204,0.2297,38.02,67,98,46540
1.7546,0.2346,37.77,67,98,46543
1.7107,0.2297,37.96,67,98,46546
1.7107,0.2297,37.99,67,98,46550
1.7351,0.2395,38.02,67,98,46554
1.7546,0.2297,38.05,67,98,46557
1.8622,0.2346,37.77,67,98,46560
1.9404,0.2542,37.99,67,98,46563
2.0528,0.2297,38.08,67,98,46567
2.2287,0.2395,37.96,67,98,46570
2.3754,0.2346,38.05,67,98,46573
2.5953,0.2395,37.77,67,98,46576
2.6686,0.2297,38.02,67,98,46579
2.7028,0.2639,38.05,67,98,46583
2.6491,0.2444,37.96,67,98,46586
2.4536,0.2346,38.05,67,98,46589
2.2434,0.2346,37.83,67,98,46593
1.9648,0.2346,38.08,67,98,46597
1.7742,0.2346,38.08,67,98,46600
1.6471,0.2395,38.24,67,98,46603
1.5494,0.2297,38.15,67,98,46606
1.5347,0.2346,37.83,67,98,46610
1.5103,0.2346,37.96,67,98,46613
1.5152,0.2297,38.18,67,98,46616
1.5494,0.2395,37.96,67,98,46619
1.564,0.2297,38.05,67,98,46623
1.6178,0.2395,37.83,67,98,46626
1.6276,0.2297,38.02,67,98,46629
1.6569,0.2297,38.05,67,98,46632
1.696,0.2346,37.93,67,98,46637
1.6764,0.259,38.08,67,98,46640
1.6911,0.2346,37.87,67,98,46643
1.6569,0.2346,38.05,67,98,46646
1.6569,0.2346,37.99,67,98,46650
1.6764,0.2395,37.99,67,98,46653
1.6667,0.2297,38.05,67,98,46656
1.6911,0.2346,37.87,67,98,46659
1.6862,0.2346,37.96,67,98,46663
1.696,0.2297,38.05,67,98,46666
1.7253,0.2346,37.93,67,98,46669
1.7253,0.2346,38.05,67,98,46672
1.7498,0.2346,37.9,67,98,46676
1.7351,0.2346,38.05,67,98,46680
1.74,0.2346,38.05,67,98,46683
1.7693,0.2346,37.93,67,98,46686
1.7644,0.2346,38.05,67,98,46690
1.7937,0.2346,37.9,67,98,46693
1.7791,0.2346,38.05,67,98,46696
1.7937,0.2346,38.08,67,98,46699
1.8328,0.2444,37.96,67,98,46703
1.8035,0.2346,38.05,67,98,46706
1.8231,0.2346,37.9,67,98,46709
1.7986,0.2346,38.02,67,98,46712
1.8084,0.2297,38.24,67,98,46715
1.8328,0.2346,37.28,67,98,46720
1.8377,0.2346,38.05,67,98,46723
1.8671,0.2346,37.9,67,98,46726
1.8328,0.2297,38.05,67,98,46729
1.8719,0.2346,38.08,67,98,46733
1.8671,0.2346,37.96,67,98,46736
1.8671,0.2346,38.05,67,98,46739
1.9013,0.2346,37.99,67,98,46742
1.8719,0.2346,38.05,67,98,46746
1.8964,0.2297,38.08,67,98,46749
1.9648,0.2444,37.93,67,98,46752
1.9257,0.2346,38.05,67,98,46755
1.955,0.2395,38.24,67,98,46759
1.911,0.2297,38.08,67,98,46763
1.8964,0.259,38.08,67,98,46766
1.9062,0.2395,37.99,67,98,46769
1.9062,0.2346,38.08,67,98,46773
1.9257,0.2297,37.99,67,98,46776
1.9062,0.2297,38.02,67,98,46779
1.9208,0.2346,38.08,67,98,46782
1.9453,0.2346,37.99,67,98,46786
1.9501,0.2346,38.05,67,98,46789
1.9941,0.2297,37.93,67,98,46792
1.9844,0.2346,38.08,67,98,46795
2.0039,0.2395,38.08,67,98,46799
2.0577,0.2297,37.93,67,98,46802
2.0577,0.2346,37.83,67,98,46806
2.0821,0.2346,37.87,67,98,46809
2.0626,0.2346,38.08,67,98,46813
2.0772,0.2395,38.05,67,98,46816
2.1212,0.2395,37.96,67,98,46819
2.1163,0.2346,38.05,67,98,46822
2.1505,0.2542,37.96,67,98,46825
2.1408,0.2346,38.11,67,98,46829
2.1603,0.2297,38.08,67,98,46832
2.2043,0.2444,37.99,67,98,46835
2.1945,0.2297,38.05,67,98,46838
2.219,0.2395,37.99,67,98,46842
2.2092,0.2346,38.02,67,98,46845
2.2092,0.2297,38.08,67,98,46849
2.2385,0.2346,37.9,67,98,46852
2.1896,0.2346,38.02,67,98,46856
2.1848,0.2297,37.96,67,98,46859
2.175,0.2346,38.08,67,98,46862
2.1457,0.2297,38.11,67,98,46865
2.1652,0.2395,37.93,67,98,46869
2.1065,0.2395,38.05,67,98,46872
2.0772,0.2297,37.99,67,98,46875
2.0381,0.2346,38.08,67,98,46878
2.0283,0.2346,38.18,67,98,46882
1.9892,0.2444,37.53,67,98,46885
1.911,0.2346,38.05,67,98,46888
1.8524,0.2248,37.99,67,98,46892
1.7986,0.2346,38.08,67,98,46896
1.7595,0.2297,38.02,67,98,46899
1.7742,0.2395,37.93,67,98,46902
1.7155,0.2395,38.08,67,98,46905
1.6716,0.2297,38.02,67,98,46909
1.6373,0.2346,38.18,67,98,46912
1.6129,0.2346,38.08,67,98,46915
1.652,0.2786,37.93,67,98,46918
1.6276,0.2395,37.96,67,98,46922
1.6178,0.2297,38.02,67,98,46925
1.608,0.2346,38.08,67,98,46928
1.608,0.2346,38.11,67,98,46931
1.652,0.2493,37.93,67,98,46935
1.6471,0.2395,38.05,67,98,46939
1.6373,0.2297,37.31,67,98,46942
1.652,0.2346,37.99,67,98,46945
1.6471,0.2346,38.11,67,98,46948
1.6911,0.2444,37.87,67,98,46952
1.6471,0.2444,38.02,67,98,46955
1.6471,0.2297,37.34,67,98,46958
1.6618,0.2346,38.08,67,98,46961
1.6911,0.2346,38.08,67,98,46965
1.7155,0.2493,37.9,67,98,46968
1.6813,0.2395,37.99,67,98,46971
1.6862,0.2297,38.08,67,98,46974
1.6716,0.2346,38.05,67,98,46979
1.6716,0.2297,38.05,67,98,46982
1.7253,0.2493,37.87,67,98,46985
1.7009,0.2346,37.99,67,98,46988
1.6911,0.2297,38.08,67,98,46992
1.7058,0.2297,38.08,67,98,46995
1.7058,0.2346,38.08,67,98,46998
1.7546,0.2493,37.87,67,98,47001
1.7155,0.2395,37.99,67,98,47005
1.7107,0.2248,38.08,67,98,47008
1.7155,0.2346,38.08,67,98,47011
1.7155,0.2248,38.11,67,98,47014
1.7644,0.2493,37.83,67,98,47019
1.7253,0.2346,37.96,67,98,47022
1.7204,0.2297,38.08,67,98,47025
1.7302,0.2542,38.08,67,98,47028
1.7302,0.2297,38.08,67,98,47032
1.784,0.2297,37.83,67,98,47035
1.7644,0.2542,37.99,67,98,47038
1.7595,0.2297,38.11,67,98,47041
1.7742,0.2346,38.11,67,98,47045
1.7595,0.2297,38.11,67,98,47048
1.8133,0.2542,37.77,67,98,47051
1.7791,0.2346,38.02,67,98,47054
1.7937,0.2297,38.05,67,98,47058
1.8182,0.2346,38.08,67,98,47062
1.8133,0.2395,38.15,67,98,47065
1.8573,0.2395,37.43,67,98,47068
1.8035,0.2346,38.08,67,98,47072
1.7889,0.2346,38.11,67,98,47075
1.784,0.2444,38.08,67,98,47078
1.7791,0.2297,38.08,67,98,47081
1.8377,0.2395,37.8,67,98,47085
1.8133,0.2444,38.05,67,98,47088
1.7986,0.2297,38.15,67,98,47091
1.7986,0.2346,38.11,67,98,47094
1.8084,0.2346,38.11,67,98,47098
1.8035,0.2395,37.93,67,98,47101
1.7546,0.2346,38.15,67,98,47105
1.7595,0.2346,38.15,67,98,47108
1.8035,0.2395,38.08,67,98,47112
1.7889,0.2297,38.08,67,98,47115
1.8573,0.2297,37.87,67,98,47118
1.8182,0.2297,38.02,67,98,47121
1.8035,0.2346,38.11,67,98,47125
1.7889,0.2542,38.11,67,98,47128
1.7693,0.2297,38.15,67,98,47132
1.7742,0.2297,38.15,67,98,47136
1.8182,0.2346,37.93,67,98,47139
1.7937,0.2395,38.05,67,98,47142
1.784,0.2297,38.05,67,98,47145
1.7937,0.2346,38.11,67,98,47150
1.8133,0.2297,38.21,67,98,47153
1.8817,0.2493,37.96,67,98,47156
1.8475,0.2395,38.05,67,98,47159
1.8231,0.2297,38.02,67,98,47163
1.8035,0.2346,38.08,67,98,47166
1.784,0.2346,38.11,67,98,47169
1.828,0.2542,37.93,67,98,47172
1.784,0.2395,38.11,67,98,47176
1.7742,0.2297,38.08,67,98,47179
1.7889,0.2346,38.11,67,98,47182
1.7889,0.2346,38.18,67,98,47185
1.8475,0.2493,37.99,67,98,47190
1.8182,0.2346,38.02,67,98,47193
1.8475,0.2297,38.08,67,98,47196
1.8182,0.2542,38.08,67,98,47199
1.8035,0.2297,38.11,67,98,47203
1.8573,0.2493,37.87,67,98,47206
1.8182,0.2395,38.02,67,98,47209
1.8084,0.2297,38.02,67,98,47212
1.8133,0.2346,38.11,67,98,47216
1.8133,0.2297,38.11,67,98,47219
1.8622,0.2493,37.9,67,98,47222
1.8328,0.2542,38.02,67,98,47225
1.8231,0.2297,38.11,67,98,47229
1.828,0.2346,38.11,67,98,47233
1.828,0.2346,38.15,67,98,47236
1.8719,0.2542,37.9,67,98,47239
1.8426,0.2346,38.05,67,98,47243
1.8377,0.2297,38.08,67,98,47246
1.8377,0.2346,38.11,67,98,47249
1.8231,0.2297,38.15,67,98,47252
1.8671,0.2444,37.93,67,98,47256
1.8182,0.2346,37.96,67,98,47259
1.8182,0.2297,38.11,67,98,47262
1.8182,0.2395,38.11,67,98,47265
1.8231,0.2395,38.11,67,98,47269
1.8866,0.2493,37.9,67,98,47272
1.8622,0.2346,38.05,67,98,47276
1.8426,0.2346,38.18,67,98,47279
1.8328,0.2346,38.11,67,98,47283
1.8133,0.2297,37.43,67,98,47286
1.8524,0.2493,37.87,67,98,47289
1.8084,0.2346,38.02,67,98,47292
1.8035,0.2639,38.11,67,98,47296
1.8133,0.2346,38.3,67,98,47299
1.8133,0.2297,38.18,67,98,47302
1.8768,0.2444,37.87,67,98,47305
1.828,0.2346,37.99,67,98,47309
1.828,0.2297,38.15,67,98,47312
1.828,0.2395,38.15,67,98,47315
1.8133,0.2297,38.15,67,98,47319
1.8671,0.2493,37.87,67,98,47323
1.8426,0.2297,38.05,67,98,47326
1.8426,0.2297,38.21,67,98,47329
1.8573,0.2346,38.15,67,98,47332
1.8573,0.2346,38.15,67,98,47336
1.9355,0.2395,37.87,67,98,47339
1.8573,0.2346,38.05,67,98,47342
1.8475,0.2297,38.21,67,98,47345
1.8524,0.2395,38.11,67,98,47349
1.8475,0.2395,38.15,67,98,47352
1.9062,0.2444,37.9,67,98,47355
1.8768,0.2346,38.08,67,98,47358
1.9159,0.2346,38.15,67,98,47363
1.9208,0.2395,38.11,67,98,47366
1.9404,0.2395,38.15,67,98,47369
2.0186,0.2395,37.83,67,98,47372
2.0332,0.2395,38.05,67,98,47376
1.9892,0.2297,38.27,67,98,47379
1.999,0.2395,38.21,67,98,47382
1.9892,0.2297,38.18,67,98,47385
2.0381,0.2493,37.83,67,98,47389
1.9746,0.2248,38.05,67,98,47392
1.9648,0.2346,38.18,67,98,47395
1.9844,0.2395,38.11,67,98,47398
1.9257,0.2248,38.18,67,98,47403
1.9501,0.2395,37.87,67,98,47406
1.8768,0.2297,38.08,67,98,47409
1.8671,0.2346,38.18,67,98,47412
1.8377,0.2346,38.11,67,98,47416
1.8133,0.2297,38.11,67,98,47419
1.8426,0.2395,37.93,67,98,47422
1.7986,0.2297,38.05,67,98,47425
1.7742,0.2297,38.15,67,98,47429
1.7791,0.2346,38.18,67,98,47432
1.7546,0.2297,38.21,67,98,47435
1.7889,0.2297,37.87,67,98,47438
1.7351,0.2297,38.11,67,98,47442
1.7351,0.2346,38.18,67,98,47446
1.7449,0.2444,38.11,67,98,47449
1.7155,0.2297,38.05,67,98,47452
1.7498,0.2395,37.9,67,98,47456
1.6813,0.2346,38.08,67,98,47459
1.6862,0.2297,38.21,67,98,47462
1.696,0.2346,38.24,67,98,47465
1.696,0.2297,38.15,67,98,47469
1.7791,0.2395,37.9,67,98,47472
1.8133,0.2346,38.18,67,98,47475
1.9013,0.2297,38.05,67,98,47478
2.043,0.2395,38.3,67,98,47482
2.175,0.2346,38.15,67,98,47485
2.4047,0.2395,37.83,67,98,47489
2.5171,0.2297,38.11,67,98,47492
2.6442,0.2346,38.18,67,98,47496
2.7273,0.2444,38.08,67,98,47499
2.654,0.2297,38.18,67,98,47502
2.5367,0.2444,37.9,67,98,47505
2.2336,0.2248,38.11,67,98,47509
1.9844,0.2297,38.05,67,98,47512
1.8231,0.2395,38.11,67,98,47515
1.6373,0.2346,38.18,67,98,47518
1.5836,0.2395,37.87,67,98,47522
1.5249,0.2395,38.15,67,98,47525
1.5005,0.2297,38.18,67,98,47528
1.5445,0.2395,38.15,67,98,47532
1.5494,0.2346,38.18,67,98,47536
1.6129,0.2395,37.99,67,98,47539
1.5982,0.2346,38.15,67,98,47542
1.6373,0.2297,38.18,67,98,47545
1.6667,0.2395,38.08,67,98,47549
1.652,0.2297,37.83,67,98,47552
1.696,0.2395,37.9,67,98,47555
1.6862,0.2297,38.15,67,98,47558
1.7155,0.2346,38.15,67,98,47562
1.7546,0.2395,38.15,67,98,47565
1.7449,0.2297,38.24,67,98,47568
1.7546,0.2297,37.9,67,98,47571
1.6911,0.2884,38.08,67,98,47576
1.6569,0.2297,38.21,67,98,47579
1.6667,0.2395,38.18,67,98,47582
1.6716,0.2346,38.18,67,98,47585
1.7253,0.2444,37.93,67,98,47589
1.7155,0.2493,38.15,67,98,47592
1.7253,0.2297,38.36,67,98,47595
1.7546,0.2444,38.11,67,98,47598
1.7595,0.2346,38.18,67,98,47602
1.7742,0.2395,37.96,67,98,47605
1.7498,0.2297,38.15,67,98,47608
1.7546,0.2297,38.18,67,98,47611
1.7791,0.2444,38.08,67,98,47616
1.7498,0.2395,38.21,67,98,47619
1.784,0.2395,37.93,67,98,47622
1.7742,0.2395,38.08,67,98,47625
1.7791,0.2297,38.18,67,98,47629
1.8182,0.2395,38.08,67,98,47632
1.8133,0.2639,38.24,67,98,47635
1.8671,0.2395,37.93,67,98,47638
1.8377,0.2297,38.15,67,98,47642
1.8768,0.2346,38.18,67,98,47645
1.8622,0.2395,38.08,67,98,47648
1.8524,0.2297,38.21,67,98,47651
1.9159,0.2346,37.93,67,98,47655
1.9013,0.2346,38.21,67,98,47659
1.8964,0.2688,38.18,67,98,47662
1.8964,0.2395,38.15,67,98,47665
1.8524,0.2346,38.21,67,98,47669
1.8671,0.2346,37.96,67,98,47672
1.8524,0.2346,38.11,67,98,47675
1.8671,0.2297,38.18,67,98,47678
1.9159,0.2444,38.11,67,98,47682
1.9159,0.2297,38.18,67,98,47685
1.955,0.2444,38.05,67,98,47688
1.9208,0.2346,38.11,67,98,47691
1.9208,0.2297,38.21,67,98,47695
1.9453,0.2444,38.05,67,98,47698
1.9306,0.2346,38.21,67,98,47702
1.9795,0.2297,37.96,67,98,47705
1.9599,0.2297,38.21,67,98,47709
1.9844,0.2346,38.21,67,98,47712
2.0186,0.2395,38.11,67,98,47715
2.0186,0.2346,38.27,67,98,47718
2.0626,0.2346,37.99,67,98,47722
2.0626,0.2248,38.08,67,98,47725
2.0772,0.2346,38.21,67,98,47728
2.1212,0.2346,38.02,67,98,47731
2.1163,0.2297,38.18,67,98,47735
2.1505,0.2346,38.08,67,98,47738
2.1212,0.2395,37.96,67,98,47741
2.1408,0.2297,38.08,67,98,47747
2.1652,0.2346,38.21,67,98,47750
2.1945,0.2737,38.11,67,98,47753
2.1799,0.2297,38.18,67,98,47756
2.2239,0.2395,37.96,67,98,47760
2.1799,0.2444,38.11,67,98,47763
2.1408,0.2297,38.18,67,98,47766
2.1408,0.2395,38.15,67,98,47769
2.1017,0.2297,38.21,67,98,47773
2.1261,0.2395,37.93,67,98,47776
2.0626,0.2444,38.18,67,98,47779
2.0283,0.2297,38.24,67,98,47782
2.0039,0.2444,38.08,67,98,47787
1.9404,0.2297,38.27,67,98,47790
1.9355,0.2395,37.99,67,98,47793
1.8524,0.2346,38.18,67,98,47796
1.828,0.2346,38.21,67,98,47799
1.8133,0.2444,38.33,67,98,47803
1.7498,0.2346,37.46,67,98,47806
1.7449,0.2297,37.96,67,98,47809
1.696,0.2346,38.11,67,98,47812
1.6618,0.2297,38.21,67,98,47816
1.6618,0.2444,38.15,67,98,47819
1.6325,0.2346,38.21,67,98,47822
1.6569,0.2346,37.99,67,98,47826
1.608,0.2346,38.18,67,98,47830
1.608,0.2297,38.08,67,98,47833
1.6325,0.2395,38.11,67,98,47836
1.6031,0.2248,38.18,67,98,47839
1.6178,0.2346,37.96,67,98,47843
1.5787,0.2297,38.24,67,98,47846
1.6129,0.2346,38.24,67,98,47849
1.6178,0.2248,38.08,67,98,47852
1.6227,0.2346,38.21,67,98,47856
1.6764,0.2346,37.99,67,98,47859
1.6618,0.2346,38.11,67,98,47862
1.652,0.2346,38.18,67,98,47865
1.6618,0.2444,38.11,67,98,47869
1.6471,0.2297,38.27,67,98,47873
1.6813,0.2346,37.99,67,98,47876
1.6618,0.2395,38.18,67,98,47879
1.6813,0.2395,38.18,67,98,47883
1.7204,0.2395,38.15,67,98,47886
1.74,0.2346,38.21,67,98,47889
1.7449,0.2346,37.77,67,98,47892
1.7204,0.2346,38.24,67,98,47896
1.7253,0.2346,38.21,67,98,47899
1.74,0.2346,38.08,67,98,47902
1.7155,0.2346,38.43,67,98,47905
1.7449,0.2346,38.02,67,98,47909
1.74,0.2346,38.15,67,98,47912
1.7253,0.2248,38.24,67,98,47916
1.7449,0.259,38.11,67,98,47919
1.74,0.2346,38.21,67,98,47923
1.7644,0.2346,38.02,67,98,47926
1.74,0.2395,38.18,67,98,47929
1.7498,0.2297,38.3,67,98,47932
1.7791,0.2297,38.05,67,98,47936
1.7742,0.2786,38.24,67,98,47939
1.8035,0.2346,38.05,67,98,47942
1.784,0.2297,38.24,67,98,47945
1.7889,0.2444,38.24,67,98,47949
1.7889,0.2395,38.11,67,98,47952
1.7595,0.2346,38.15,67,98,47955
1.784,0.2297,38.05,67,98,47959
1.7986,0.2346,38.18,67,98,47963
1.7693,0.2346,38.21,67,98,47966
1.7791,0.2395,38.08,67,98,47969
1.7742,0.2297,38.21,67,98,47972
1.828,0.2395,38.05,67,98,47976
1.784,0.2346,38.21,67,98,47979
1.7937,0.2297,38.24,67,98,47982
1.7986,0.2297,38.15,67,98,47985
1.7791,0.2395,38.27,67,98,47989
1.7986,0.2346,38.15,67,98,47992
1.7644,0.2346,38.46,67,98,47995
1.7644,0.2346,38.24,67,98,47998
1.7986,0.2395,38.08,67,98,48003
1.8133,0.2346,38.27,67,98,48006
1.8182,0.2346,38.05,67,98,48009
1.7986,0.2297,38.18,67,98,48012
1.8328,0.2346,38.24,67,98,48016
1.8231,0.2346,38.18,67,98,48019
1.7986,0.2346,38.18,67,98,48022
1.8182,0.2346,38.08,67,98,48025
1.7791,0.2395,38.21,67,98,48029
1.7791,0.2297,38.21,67,98,48032
1.784,0.2346,38.15,67,98,48035
1.7791,0.2346,38.24,67,98,48038
1.7937,0.2395,38.15,67,98,48043
1.7644,0.2346,38.21,67,98,48046
1.7693,0.2346,38.24,67,98,48049
1.8328,0.2395,38.08,67,98,48052
1.784,0.2444,38.24,67,98,48056
1.8182,0.2395,38.11,67,98,48059
1.7986,0.2297,38.24,67,98,48062
1.8035,0.2297,38.24,67,98,48065
1.8133,0.2395,38.4,67,98,48069
1.7986,0.2346,38.21,67,98,48072
1.8182,0.2346,38.11,67,98,48075
1.7937,0.2444,38.24,67,98,48078
1.8035,0.2346,38.3,67,98,48082
1.8182,0.2346,38.15,67,98,48086
1.8084,0.2346,38.24,67,98,48089
1.8328,0.2395,38.21,67,98,48092
1.8182,0.2346,38.24,67,98,48096
1.828,0.2346,38.24,67,98,48099
1.8817,0.2395,38.05,67,98,48102
1.8573,0.2346,38.21,67,98,48105
1.8719,0.2395,38.08,67,98,48109
1.828,0.2346,38.24,67,98,48112
1.8182,0.2346,38.4,67,98,48115
1.828,0.2395,38.18,67,98,48118
1.8133,0.2444,38.21,67,98,48121
1.8377,0.2542,38.11,67,98,48125
1.828,0.2346,38.3,67,98,48129
1.8475,0.2297,38.24,67,98,48132
1.8768,0.2346,38.21,67,98,48135
1.8524,0.259,38.21,67,98,48139
1.8475,0.2395,38.11,67,98,48142
1.7986,0.2297,38.24,67,98,48145
1.7889,0.2395,38.3,67,98,48148
1.8133,0.2395,38.18,67,98,48152
1.7889,0.2346,38.24,67,98,48155
1.8182,0.2346,38.08,67,98,48158
1.7986,0.2639,38.21,67,98,48161
1.8084,0.2346,38.24,67,98,48165
1.8328,0.2297,38.15,67,98,48168
1.8328,0.2395,38.21,67,98,48172
1.8328,0.2346,38.11,67,98,48175
1.8182,0.2346,38.24,67,98,48179
1.8328,0.2346,38.24,67,98,48182
1.8475,0.2395,38.21,67,98,48185
1.8377,0.2248,38.24,67,98,48188
1.8622,0.2346,38.11,67,98,48192
1.8573,0.2346,38.08,67,98,48195
1.8768,0.2346,38.24,67,98,48198
1.911,0.2444,38.08,67,98,48201
1.8768,0.2395,38.3,67,98,48205
1.8671,0.2346,38.15,67,98,48208
1.8084,0.2346,38.27,67,98,48211
1.7889,0.2346,38.18,67,98,48215
1.8084,0.2444,38.15,67,98,48219
1.7889,0.2395,38.21,67,98,48222
1.8035,0.2346,38.08,67,98,48225
1.7986,0.2346,38.27,67,98,48228
1.8133,0.2297,38.27,67,98,48232
1.8719,0.2444,38.15,67,98,48235
1.8426,0.2297,38.21,67,98,48238
1.8524,0.2346,38.15,67,98,48241
1.8328,0.2346,38.24,67,98,48245
1.828,0.2297,38.27,67,98,48248
1.8866,0.2444,38.08,67,98,48251
1.8328,0.2346,38.21,67,98,48254
1.8475,0.2346,38.18,67,98,48259
1.828,0.2297,38.27,67,98,48262
1.828,0.2346,38.24,67,98,48265
1.8671,0.2444,38.18,67,98,48268
1.8671,0.2395,38.21,67,98,48272
1.8915,0.2346,38.15,67,98,48275
1.9013,0.2346,38.27,67,98,48278
1.9159,0.2346,38.3,67,98,48281
1.9648,0.2444,38.08,67,98,48285
1.955,0.2297,38.21,67,98,48288
1.9697,0.2346,38.15,67,98,48291
1.955,0.2444,38.27,67,98,48294
1.9599,0.2346,38.27,67,98,48299
2.0088,0.2444,38.08,67,98,48302
2.0039,0.2444,38.21,67,98,48305
2.0137,0.2346,38.15,67,98,48308
2.0235,0.2297,38.27,67,98,48312
2.0332,0.2346,38.21,67,98,48315
2.0919,0.2444,38.15,67,98,48318
2.0626,0.2395,38.18,67,98,48321
2.0186,0.2248,38.15,67,98,48325
1.955,0.2346,38.3,67,98,48328
1.9062,0.2297,38.27,67,98,48331
1.9159,0.2395,38.11,67,98,48334
1.8719,0.2395,38.21,67,98,48338
1.8671,0.2346,37.53,67,98,48342
1.8377,0.2346,38.27,67,98,48345
1.8084,0.2297,38.27,67,98,48348
1.8035,0.2493,38.05,67,98,48352
1.7107,0.2395,38.21,67,98,48356
1.7009,0.2346,38.24,67,98,48359
1.7253,0.2346,38.08,67,98,48363
1.7107,0.2297,38.27,67,98,48366
1.7204,0.2346,38.27,67,98,48369
1.7449,0.2786,38.3,67,98,48372
1.7302,0.2346,38.21,67,98,48376
1.7498,0.2346,38.11,67,98,48379
1.74,0.2346,38.24,67,98,48382
1.7791,0.2346,38.27,67,98,48386
1.8817,0.2395,38.18,67,98,48390
1.9648,0.2395,38.24,67,98,48393
2.1065,0.2346,38.11,67,98,48396
2.2239,0.2639,38.27,67,98,48399
2.3803,0.2346,38.27,67,98,48403
2.5562,0.2395,38.18,67,98,48406
2.6393,0.2346,38.24,67,98,48409
2.6882,0.2346,38.24,67,98,48412
2.566,0.2297,38.27,67,98,48416
2.3705,0.2346,38.27,67,98,48419
2.1799,0.2444,38.18,67,98,48422
1.9404,0.2346,38.24,67,98,48425
1.7889,0.2346,38.15,67,98,48430
1.6422,0.2346,38.27,67,98,48433
1.5591,0.2248,38.3,67,98,48436
1.564,0.2444,37.37,67,98,48439
1.5591,0.2395,38.24,67,98,48443
1.6129,0.2346,38.15,67,98,48446
1.6031,0.2737,38.27,67,98,48449
1.6227,0.2346,37.62,67,98,48452
1.6569,0.2444,38.21,67,98,48456
1.652,0.2395,38.24,67,98,48459
1.6716,0.2346,38.15,67,98,48462
1.6618,0.2346,38.27,67,98,48465
1.6716,0.2346,38.15,67,98,48470
1.7058,0.2444,38.27,67,98,48473
1.7009,0.2346,38.27,67,98,48476
1.7253,0.2346,38.15,67,98,48479
1.7204,0.2346,38.27,67,98,48483
1.7204,0.2297,38.3,67,98,48486
1.7498,0.2395,38.11,67,98,48489
1.7155,0.2444,38.24,67,98,48492
1.7253,0.2346,38.3,67,98,48496
1.7155,0.2346,38.27,67,98,48499
1.7546,0.2346,38.3,67,98,48502
1.7644,0.2444,38.15,67,98,48505
1.7546,0.2395,38.24,67,98,48509
1.7644,0.2346,38.18,67,98,48513
1.7498,0.2346,38.3,67,98,48516
1.7595,0.2346,38.33,67,98,48519
1.8035,0.2444,38.15,67,98,48523
1.8035,0.2346,38.27,67,98,48526
1.8426,0.2346,38.18,67,98,48529
1.8426,0.2346,38.27,67,98,48532
1.8328,0.2346,38.36,67,98,48536
1.8768,0.2444,38.11,67,98,48539
1.8573,0.2395,38.33,67,98,48542
1.8671,0.2346,38.15,67,98,48545
1.8328,0.2395,38.3,67,98,48549
1.8231,0.2346,38.27,67,98,48552
1.8524,0.2444,37.65,67,98,48556
1.8426,0.2395,38.24,67,98,48559
1.8475,0.2395,38.15,67,98,48563
1.8377,0.2346,38.27,67,98,48566
1.8475,0.2346,38.46,67,98,48569
1.8915,0.2444,38.21,67,98,48572
1.9062,0.2346,38.27,67,98,48576
1.8866,0.2346,38.15,67,98,48579
1.8817,0.2346,38.3,67,98,48582
1.8964,0.2346,38.3,67,98,48585
1.955,0.2395,38.15,67,98,48589
1.9501,0.2297,38.24,67,98,48592
1.9746,0.2346,38.21,67,98,48595
1.9599,0.2346,38.27,67,98,48599
1.9648,0.2346,38.3,67,98,48603
2.0137,0.2444,38.11,67,98,48606
1.9892,0.2395,38.24,67,98,48609
1.9844,0.2346,38.24,67,98,48612
1.9697,0.2346,38.3,67,98,48616
1.9795,0.2346,38.33,67,98,48619
2.0332,0.2493,38.18,67,98,48622
2.0235,0.2395,38.3,67,98,48625
2.0381,0.2542,38.18,67,98,48629
2.043,0.2346,38.27,67,98,48632
2.0577,0.2346,38.3,67,98,48635
2.1163,0.2444,38.08,67,98,48638
2.1065,0.2493,38.3,67,98,48643
2.1114,0.2346,38.21,67,98,48646
2.1212,0.2346,38.27,67,98,48649
2.1261,0.2297,38.3,67,98,48652
2.1848,0.2493,38.02,67,98,48656
2.1701,0.2297,38.21,67,98,48659
2.1652,0.2248,38.21,67,98,48662
2.1799,0.2346,38.27,67,98,48665
2.1994,0.2346,38.3,67,98,48669
2.2825,0.2493,38.11,67,98,48672
