2.6637,0.3275,39.83,96,96,139614
2.8837,0.3177,39.93,96,96,139617
3.1085,0.3177,39.89,96,96,139620
3.172,0.3128,40,96,96,139624
3.1134,0.303,39.96,96,96,139627
3.0156,0.3226,39.86,96,96,139630
2.7761,0.3177,39.96,96,96,139634
2.5855,0.3177,39.93,96,96,139637
2.3705,0.3128,40,96,96,139640
2.1457,0.3128,39.93,96,96,139643
1.9746,0.3177,39.96,96,96,139648
1.784,0.3226,40,96,96,139651
1.6862,0.3128,39.83,96,96,139654
1.5543,0.3128,39.86,96,96,139658
1.4858,0.3128,39.93,96,96,139661
1.4516,0.3128,39.86,96,96,139664
1.4027,0.3128,39.89,96,96,139668
1.4467,0.3128,39.77,96,96,139671
1.3832,0.3079,40,96,96,139674
1.3881,0.3079,40.03,96,96,139678
1.3978,0.3177,39.93,96,96,139681
1.3978,0.3128,40.03,96,96,139684
1.4565,0.3226,39.73,96,96,139687
1.4272,0.3177,39.93,96,96,139692
1.4272,0.303,39.93,96,96,139695
1.4418,0.3177,39.93,96,96,139698
1.4467,0.3128,40.2,96,96,139702
1.5103,0.3226,39.83,96,96,139705
1.4956,0.3177,39.89,96,96,139708
1.5005,0.3128,39.86,96,96,139712
1.5152,0.3177,39.96,96,96,139715
1.5347,0.3128,40,96,96,139718
1.5787,0.3177,39.86,96,96,139722
1.5787,0.3519,39.93,96,96,139725
1.6031,0.3128,39.86,96,96,139728
1.5982,0.3128,39.96,96,96,139731
1.6178,0.3128,39.96,96,96,139736
1.652,0.3128,39.96,96,96,139739
1.6569,0.3128,40.13,96,96,139742
1.7009,0.3177,39.89,96,96,139746
1.6813,0.3128,39.96,96,96,139749
1.6911,0.3079,39.96,96,96,139752
1.7498,0.3128,39.89,96,96,139756
1.7253,0.3128,40,96,96,139759
1.7693,0.3177,39.8,96,96,139762
1.7644,0.3128,39.86,96,96,139766
1.7742,0.3079,40,96,96,139769
1.8133,0.3372,39.86,96,96,139772
1.8182,0.3128,39.96,96,96,139776
1.8719,0.3177,39.73,96,96,139780
1.8573,0.3128,39.93,96,96,139783
1.8622,0.3128,40,96,96,139786
1.8866,0.3177,39.96,96,96,139790
1.8964,0.3128,40,96,96,139793
1.9795,0.3275,39.73,96,96,139796
1.955,0.3177,39.89,96,96,139800
1.9941,0.3128,39.93,96,96,139803
1.9844,0.3128,39.96,96,96,139806
1.9941,0.3079,39.96,96,96,139810
2.0479,0.3226,39.86,96,96,139813
2.0283,0.3128,39.96,96,96,139816
2.0528,0.3079,39.93,96,96,139820
2.0381,0.3128,39.96,96,96,139824
2.0381,0.3128,40,96,96,139827
2.0674,0.3177,39.83,96,96,139830
2.0381,0.3128,39.96,96,96,139834
2.0626,0.3177,39.83,96,96,139837
2.0381,0.3079,39.83,96,96,139840
2.0332,0.3128,40.03,96,96,139844
2.0626,0.3128,39.86,96,96,139847
2.0039,0.3128,39.96,96,96,139850
2.0186,0.3128,39.86,96,96,139854
1.9599,0.3079,39.93,96,96,139857
1.9355,0.3128,40,96,96,139860
1.9013,0.3128,39.86,96,96,139864
1.8524,0.3079,40.03,96,96,139868
1.8426,0.3177,39.8,96,96,139871
1.7644,0.3128,39.93,96,96,139874
1.7449,0.3079,40,96,96,139878
1.7351,0.3226,39.89,96,96,139881
1.6862,0.3079,40.03,96,96,139884
1.7009,0.3226,39.73,96,96,139888
1.6716,0.3128,39.89,96,96,139891
1.608,0.3128,39.96,96,96,139894
1.6031,0.3128,39.93,96,96,139898
1.6129,0.3128,39.96,96,96,139901
1.6325,0.3275,39.77,96,96,139905
1.5934,0.3177,39.89,96,96,139908
1.5836,0.3128,39.93,96,96,139912
1.5836,0.3128,39.93,96,96,139915
1.5787,0.3128,40,96,96,139918
1.6178,0.3177,39.86,96,96,139922
1.5934,0.3421,39.93,96,96,139925
1.608,0.3128,39.86,96,96,139928
1.5934,0.3079,39.96,96,96,139932
1.6031,0.303,39.96,96,96,139935
1.6422,0.3177,39.96,96,96,139938
1.6325,0.3128,39.96,96,96,139942
1.6618,0.3275,39.93,96,96,139945
1.6373,0.3128,40.13,96,96,139949
1.6422,0.3128,39.96,96,96,139953
1.6764,0.3177,39.96,96,96,139956
1.6569,0.3226,39.96,96,96,139959
1.6911,0.3128,39.8,96,96,139962
1.6764,0.3079,39.89,96,96,139966
1.6764,0.3128,40,96,96,139969
1.7009,0.3226,39.86,96,96,139972
1.6862,0.3128,40.06,96,96,139976
1.7351,0.3177,39.8,96,96,139979
1.7058,0.3128,39.89,96,96,139982
1.7107,0.3079,40,96,96,139986
1.7204,0.3128,39.8,96,96,139990
1.7107,0.347,39.96,96,96,139993
1.7644,0.3177,39.7,96,96,139996
1.7302,0.3128,39.89,96,96,140000
1.7253,0.3079,39.93,96,96,140003
1.7351,0.3128,39.96,96,96,140006
1.7302,0.3079,40.13,96,96,140010
1.784,0.3372,39.83,96,96,140013
1.7498,0.3177,39.93,96,96,140016
1.7546,0.3128,39.96,96,96,140020
1.7693,0.3128,39.96,96,96,140023
1.7498,0.3128,39.96,96,96,140026
1.7644,0.3177,39.86,96,96,140030
1.7546,0.3177,39.96,96,96,140034
1.7644,0.3177,39.86,96,96,140037
1.7449,0.3128,40,96,96,140041
1.7449,0.3128,40.03,96,96,140044
1.7693,0.3128,39.96,96,96,140047
1.7498,0.3128,39.89,96,96,140050
1.7742,0.3128,39.86,96,96,140054
1.7498,0.3128,39.96,96,96,140057
1.7546,0.3421,39.96,96,96,140060
1.7693,0.3128,39.83,96,96,140064
1.7498,0.3128,40,96,96,140067
1.784,0.3226,39.77,96,96,140070
1.7498,0.3079,39.96,96,96,140075
1.7595,0.3128,40.06,96,96,140078
1.7889,0.3177,39.93,96,96,140081
1.7644,0.3079,39.93,96,96,140085
1.8133,0.3226,39.7,96,96,140088
1.7889,0.3177,39.96,96,96,140091
1.784,0.3079,39.96,96,96,140094
1.8133,0.3128,39.96,96,96,140098
1.8084,0.3079,40,96,96,140101
1.8719,0.3324,39.8,96,96,140104
1.8475,0.3226,39.89,96,96,140108
1.8524,0.3128,39.89,96,96,140111
1.8524,0.3079,39.93,96,96,140114
1.8573,0.3128,39.96,96,96,140119
1.9013,0.3275,39.8,96,96,140122
1.9062,0.3226,39.96,96,96,140125
1.9306,0.3177,39.86,96,96,140129
1.9208,0.3128,40.06,96,96,140132
1.8426,0.3128,40,96,96,140136
1.8231,0.3128,40,96,96,140139
1.8231,0.3177,39.89,96,96,140142
1.7889,0.3128,40,96,96,140146
1.8035,0.3177,39.86,96,96,140149
1.7546,0.3128,39.86,96,96,140152
1.7155,0.3128,40,96,96,140155
1.7155,0.3177,39.96,96,96,140160
1.6862,0.303,40,96,96,140163
1.7204,0.3226,39.7,96,96,140166
1.6911,0.3177,40.3,96,96,140170
1.6813,0.3226,39.93,96,96,140173
1.6813,0.3128,39.96,96,96,140176
1.6764,0.347,39.96,96,96,140180
1.74,0.3275,39.83,96,96,140183
1.7009,0.3079,39.93,96,96,140186
1.7009,0.3079,39.89,96,96,140190
1.6911,0.3226,39.96,96,96,140193
1.6911,0.3079,40,96,96,140196
1.7351,0.3128,39.89,96,96,140199
1.7595,0.3226,39.93,96,96,140204
1.8768,0.3177,39.86,96,96,140207
1.9941,0.3128,39.96,96,96,140210
2.2092,0.3128,40,96,96,140214
2.5122,0.3079,39.89,96,96,140217
2.7615,0.3128,39.96,96,96,140220
3.0596,0.3128,39.89,96,96,140224
3.1965,0.3128,39.93,96,96,140227
3.2405,0.3079,40,96,96,140230
3.1916,0.3226,39.86,96,96,140234
2.9765,0.3079,39.96,96,96,140237
2.8152,0.3177,39.8,96,96,140240
2.5562,0.3079,39.83,96,96,140243
2.3363,0.3128,40,96,96,140248
2.1701,0.3079,39.89,96,96,140251
1.9648,0.3079,40.03,96,96,140254
1.8573,0.3324,39.77,96,96,140258
1.6911,0.3128,39.93,96,96,140261
1.608,0.3128,40,96,96,140264
1.5543,0.3128,39.96,96,96,140268
1.5054,0.3128,40.03,96,96,140271
1.52,0.3275,39.73,96,96,140274
1.4712,0.3128,39.93,96,96,140277
1.4565,0.3128,39.93,96,96,140281
1.4614,0.3128,39.96,96,96,140284
1.4712,0.3128,39.96,96,96,140288
1.5103,0.3226,39.8,96,96,140292
1.5005,0.3177,39.93,96,96,140295
1.5103,0.3128,39.86,96,96,140298
1.5152,0.3372,39.96,96,96,140302
1.5298,0.3128,40,96,96,140305
1.5689,0.3177,39.83,96,96,140308
1.5591,0.3177,39.96,96,96,140312
1.5982,0.3226,39.86,96,96,140315
1.5787,0.3128,40,96,96,140318
1.5982,0.3128,40,96,96,140322
1.6227,0.3128,39.93,96,96,140325
1.6325,0.3128,40.06,96,96,140328
1.6716,0.3177,39.8,96,96,140332
1.6569,0.3128,39.96,96,96,140336
1.6813,0.3128,40,96,96,140339
1.7155,0.3177,39.93,96,96,140342
1.7155,0.3128,40,96,96,140346
1.7644,0.3177,39.89,96,96,140349
1.7546,0.3177,39.89,96,96,140352
1.7595,0.3128,39.96,96,96,140356
1.7889,0.3128,39.93,96,96,140359
1.7937,0.3128,40,96,96,140362
1.8622,0.3226,39.7,96,96,140366
1.8475,0.3128,39.86,96,96,140369
1.8719,0.3128,39.93,96,96,140372
1.8622,0.3128,39.96,96,96,140376
1.8719,0.3128,40.03,96,96,140380
1.9697,0.3372,39.8,96,96,140383
1.9355,0.3177,39.93,96,96,140386
1.9453,0.3079,39.86,96,96,140390
1.9501,0.3128,39.96,96,96,140393
1.9697,0.3079,39.96,96,96,140396
2.0186,0.3226,39.89,96,96,140400
2.0186,0.3128,39.96,96,96,140403
2.0528,0.3177,39.86,96,96,140406
2.0332,0.3128,40.16,96,96,140410
2.043,0.3372,40,96,96,140413
2.0821,0.3177,39.86,96,96,140417
2.0626,0.3128,40,96,96,140420
2.1017,0.3226,39.96,96,96,140424
2.0772,0.3128,40,96,96,140427
2.0821,0.3128,40.03,96,96,140430
2.1065,0.3177,39.86,96,96,140434
2.0821,0.3079,40.03,96,96,140437
2.1065,0.3128,39.86,96,96,140440
2.0723,0.3079,39.93,96,96,140443
2.0674,0.3128,40,96,96,140447
2.0723,0.3177,39.96,96,96,140450
2.0381,0.3128,39.86,96,96,140453
2.0626,0.3226,39.77,96,96,140457
1.999,0.3079,39.93,96,96,140461
1.9746,0.3128,40.06,96,96,140464
1.9599,0.3128,39.93,96,96,140468
1.9159,0.3128,40,96,96,140471
1.9257,0.3226,39.51,96,96,140474
1.8524,0.3226,39.89,96,96,140478
1.8035,0.3128,39.96,96,96,140481
1.7742,0.3128,39.93,96,96,140484
1.7546,0.3128,39.96,96,96,140487
1.7595,0.3275,39.8,96,96,140491
1.7009,0.3226,40.03,96,96,140494
1.6716,0.3128,39.89,96,96,140497
1.6471,0.3177,40,96,96,140502
1.6422,0.3128,39.96,96,96,140505
1.6667,0.3275,39.83,96,96,140508
1.6422,0.3177,39.96,96,96,140512
1.6471,0.3079,39.06,96,96,140515
1.6227,0.3128,40,96,96,140518
1.6276,0.3128,39.96,96,96,140522
1.6373,0.3128,39.89,96,96,140525
1.6373,0.3226,39.96,96,96,140528
1.6667,0.3177,39.86,96,96,140531
1.6422,0.3226,40.1,96,96,140535
1.652,0.3128,39.96,96,96,140538
1.6862,0.3177,39.86,96,96,140541
1.6813,0.3226,39.96,96,96,140546
1.7107,0.3177,39.83,96,96,140549
1.696,0.3519,39.86,96,96,140552
1.6862,0.3128,39.96,96,96,140556
1.7155,0.3177,40,96,96,140559
1.7058,0.3128,39.96,96,96,140562
1.7595,0.3177,39.73,96,96,140566
1.74,0.3079,39.93,96,96,140569
1.7302,0.3177,40,96,96,140572
1.74,0.3177,39.96,96,96,140576
1.7351,0.3128,40.06,96,96,140579
1.7937,0.3666,39.77,96,96,140582
1.7644,0.3226,39.96,96,96,140585
1.7693,0.3128,39.89,96,96,140590
1.7693,0.3128,39.96,96,96,140593
1.7644,0.3128,40.03,96,96,140596
1.8426,0.3177,39.89,96,96,140600
1.784,0.3177,39.93,96,96,140603
1.7986,0.3128,39.96,96,96,140606
1.7791,0.3128,40,96,96,140610
1.7791,0.3079,40,96,96,140613
1.8084,0.3226,39.8,96,96,140616
1.784,0.3226,39.96,96,96,140620
1.8084,0.3226,39.89,96,96,140623
1.7742,0.3079,40.03,96,96,140626
1.7693,0.3128,39.96,96,96,140630
1.784,0.3177,39.86,96,96,140634
1.7595,0.3128,40.03,96,96,140637
1.784,0.3128,39.8,96,96,140640
1.7693,0.3128,39.93,96,96,140644
1.7546,0.3128,39.96,96,96,140647
1.7889,0.3421,39.86,96,96,140650
1.8035,0.3128,40,96,96,140654
1.8182,0.3177,39.8,96,96,140657
1.7742,0.3177,39.93,96,96,140660
1.7937,0.3128,40,96,96,140664
1.7889,0.3079,39.19,96,96,140667
1.7693,0.3128,39.96,96,96,140670
1.8231,0.3226,39.7,96,96,140674
1.7889,0.3177,39.96,96,96,140678
1.7791,0.3128,39.93,96,96,140681
1.784,0.3177,39.93,96,96,140684
1.784,0.3128,39.86,96,96,140688
1.8719,0.3324,39.83,96,96,140691
1.8084,0.3177,39.93,96,96,140694
1.8133,0.3568,39.86,96,96,140698
1.8035,0.3128,39.96,96,96,140701
1.8231,0.3128,39.32,96,96,140704
1.8671,0.3226,39.83,96,96,140708
1.8524,0.3177,39.86,96,96,140711
1.8817,0.3177,39.86,96,96,140715
1.8719,0.3079,40.03,96,96,140719
1.8915,0.3128,40.03,96,96,140722
1.9355,0.3128,39.89,96,96,140725
1.9257,0.3128,40,96,96,140728
1.9697,0.3128,39.86,96,96,140732
1.9501,0.3128,39.96,96,96,140735
1.9746,0.3128,40,96,96,140738
2.0137,0.3177,39.93,96,96,140742
1.911,0.3079,39.96,96,96,140745
1.8768,0.3128,40,96,96,140749
1.911,0.3275,39.73,96,96,140752
1.8573,0.3177,39.86,96,96,140755
1.8182,0.3079,39.93,96,96,140760
1.7937,0.3226,39.96,96,96,140763
1.7693,0.3128,39.96,96,96,140766
1.7986,0.3275,39.83,96,96,140770
1.7644,0.3177,39.93,96,96,140773
1.7595,0.3128,39.86,96,96,140776
1.7351,0.3226,39.96,96,96,140779
1.7302,0.3079,40.06,96,96,140783
1.7546,0.3177,39.93,96,96,140786
1.7595,0.3177,39.96,96,96,140789
1.7644,0.3177,39.86,96,96,140793
1.74,0.3128,39.96,96,96,140796
1.7351,0.3128,40,96,96,140800
1.7595,0.3226,39.86,96,96,140804
1.7351,0.3128,39.96,96,96,140807
1.7791,0.3079,39.89,96,96,140810
1.8182,0.3128,39.89,96,96,140814
1.9159,0.3128,40,96,96,140817
2.087,0.3226,40.2,96,96,140820
2.2825,0.3128,39.89,96,96,140823
2.6051,0.3421,39.77,96,96,140827
2.8495,0.3177,39.93,96,96,140830
3.089,0.3128,40.06,96,96,140833
3.2747,0.3177,40.06,96,96,140837
3.2845,0.3128,40.03,96,96,140840
3.2893,0.3275,39.7,96,96,140844
3.0352,0.3128,39.25,96,96,140848
2.8152,0.3226,39.96,96,96,140851
2.6051,0.3177,39.96,96,96,140854
2.3705,0.3128,40,96,96,140858
2.219,0.3519,39.8,96,96,140861
1.9844,0.3177,39.96,96,96,140864
1.828,0.3079,39.93,96,96,140867
1.7009,0.3275,40,96,96,140871
1.6129,0.3226,40.03,96,96,140874
1.5738,0.3226,39.83,96,96,140877
1.52,0.3177,39.73,96,96,140881
1.5054,0.3372,39.86,96,96,140884
1.4809,0.3128,40,96,96,140888
1.4761,0.3128,40,96,96,140892
1.5054,0.3177,39.89,96,96,140895
1.4907,0.3177,39.96,96,96,140898
1.5152,0.3226,39.86,96,96,140901
1.5054,0.3128,39.93,96,96,140905
1.52,0.3128,40,96,96,140908
1.5689,0.3226,39.89,96,96,140911
1.564,0.3128,39.96,96,96,140915
1.5934,0.3128,39.93,96,96,140918
1.5836,0.3128,40,96,96,140921
1.5982,0.3128,40,96,96,140925
1.6276,0.3177,39.93,96,96,140929
1.6325,0.3128,39.96,96,96,140932
1.6862,0.3177,39.67,96,96,140936
1.6911,0.3128,39.89,96,96,140939
1.6862,0.3128,39.96,96,96,140942
1.7351,0.3226,39.93,96,96,140945
1.7107,0.3128,40,96,96,140949
1.7791,0.3275,39,96,96,140952
1.7937,0.3177,39.83,96,96,140955
1.7693,0.3128,39.93,96,96,140959
1.7889,0.3275,39.96,96,96,140962
1.8084,0.3128,39.96,96,96,140965
1.8671,0.3275,39.86,96,96,140969
1.8719,0.3177,39.96,96,96,140973
1.8671,0.3128,39.89,96,96,140976
1.8622,0.3128,39.96,96,96,140980
1.8768,0.3128,39.96,96,96,140983
1.911,0.3226,39.93,96,96,140986
1.9159,0.3128,40.06,96,96,140990
1.9599,0.3666,39.83,96,96,140993
1.9501,0.3079,40.03,96,96,140996
1.9648,0.3079,40.06,96,96,140999
2.0137,0.3275,39.93,96,96,141003
2.0039,0.3128,39.96,96,96,141006
2.0479,0.3128,39.86,96,96,141009
2.0381,0.3079,39.93,96,96,141014
2.0626,0.3079,39.83,96,96,141017
2.1261,0.3177,39.83,96,96,141020
2.0968,0.3128,40,96,96,141024
2.1457,0.3177,39.32,96,96,141027
2.131,0.3226,39.89,96,96,141030
2.1359,0.3128,39.96,96,96,141033
2.1701,0.3226,40.06,96,96,141037
2.1457,0.3128,39.89,96,96,141040
2.1994,0.3177,39.73,96,96,141043
2.1554,0.3128,39.86,96,96,141047
2.1554,0.3226,40.03,96,96,141050
2.1554,0.3128,39.96,96,96,141053
2.1359,0.3128,40.03,96,96,141058
2.2043,0.3275,39.73,96,96,141061
2.1261,0.3177,39.96,96,96,141064
2.0968,0.3128,40,96,96,141068
2.0821,0.3177,39.96,96,96,141071
2.043,0.3128,40,96,96,141074
2.0626,0.3079,39.83,96,96,141077
1.9795,0.3226,39.93,96,96,141081
1.9501,0.3128,39.89,96,96,141084
1.8866,0.3128,40.06,96,96,141087
1.8524,0.3128,39.96,96,96,141091
1.8524,0.3177,39.86,96,96,141094
1.7937,0.3079,40,96,96,141097
1.7791,0.3177,39.73,96,96,141102
1.7253,0.3128,40,96,96,141105
1.7107,0.3128,40,96,96,141108
1.7009,0.3128,39.96,96,96,141111
1.6813,0.3128,39.96,96,96,141115
1.7107,0.3128,39.86,96,96,141118
1.6618,0.3079,40.06,96,96,141121
1.6618,0.3128,40.2,96,96,141125
1.6813,0.3226,39.86,96,96,141128
1.6618,0.3079,40.2,96,96,141131
1.7009,0.3177,39.73,96,96,141135
1.6813,0.3128,39.86,96,96,141138
1.6764,0.3128,40,96,96,141142
1.7009,0.3226,39.93,96,96,141146
1.6911,0.3128,40,96,96,141149
1.74,0.3226,39.7,96,96,141152
1.7107,0.3128,39.86,96,96,141155
1.7107,0.3128,40,96,96,141159
1.7253,0.3177,39.93,96,96,141162
1.7204,0.3079,40,96,96,141165
1.784,0.3372,39.77,96,96,141169
1.7595,0.3177,39.89,96,96,141172
1.7546,0.3128,39.86,96,96,141175
1.7546,0.3128,39.96,96,96,141179
1.7546,0.3128,39.96,96,96,141182
1.8035,0.3275,39.89,96,96,141186
1.7889,0.3177,39.93,96,96,141190
1.7986,0.3177,39.86,96,96,141193
1.7889,0.3177,39.96,96,96,141196
1.7889,0.3128,39.96,96,96,141199
1.828,0.3226,39.96,96,96,141203
1.8035,0.3324,39.93,96,96,141206
1.8328,0.3177,39.89,96,96,141209
1.8035,0.3128,40,96,96,141213
1.8084,0.3079,40.06,96,96,141216
1.828,0.3226,39.86,96,96,141219
1.8328,0.3177,39.96,96,96,141223
1.8328,0.3128,39.83,96,96,141227
1.8084,0.3177,39.93,96,96,141230
1.8133,0.3128,40,96,96,141233
1.8328,0.3177,39.86,96,96,141237
1.8133,0.3128,39.96,96,96,141240
1.8719,0.3226,39.77,96,96,141243
1.8182,0.3128,39.93,96,96,141247
1.828,0.3128,40,96,96,141250
1.8426,0.3079,39.96,96,96,141253
1.8182,0.3324,39.96,96,96,141257
1.8719,0.3275,39.7,96,96,141260
1.8328,0.3177,39.86,96,96,141263
1.8524,0.3079,39.93,96,96,141267
1.8231,0.3177,39.86,96,96,141271
1.8182,0.3128,39.96,96,96,141274
1.8719,0.3226,39.8,96,96,141278
1.8377,0.3177,39.93,96,96,141281
1.8377,0.3128,39.89,96,96,141284
1.8231,0.3177,39.96,96,96,141288
1.8524,0.3128,39.96,96,96,141291
1.8622,0.3226,39.93,96,96,141294
1.8377,0.3519,39.96,96,96,141297
1.8622,0.3177,39.83,96,96,141301
1.8475,0.3079,40,96,96,141304
1.8573,0.3177,40,96,96,141307
1.8817,0.3128,39.89,96,96,141312
1.8768,0.3177,40,96,96,141315
1.911,0.3128,39.77,96,96,141318
1.9013,0.3128,39.96,96,96,141322
1.9062,0.3128,40,96,96,141325
1.9453,0.3177,39.89,96,96,141328
1.9355,0.3128,39.96,96,96,141332
1.9892,0.3177,39.7,96,96,141335
1.9795,0.3226,39.89,96,96,141338
1.9795,0.3128,40.03,96,96,141341
2.0137,0.3177,39.93,96,96,141345
2.0088,0.3177,39.96,96,96,141348
2.0772,0.3226,39.73,96,96,141351
1.9844,0.3275,39.86,96,96,141356
1.9355,0.3177,39.96,96,96,141359
1.9208,0.3177,39.83,96,96,141363
1.8768,0.3177,40,96,96,141366
1.8524,0.3128,40,96,96,141369
1.8524,0.3177,39.86,96,96,141373
1.8133,0.3177,39.96,96,96,141376
1.8182,0.3226,39.89,96,96,141379
1.7791,0.3226,39.96,96,96,141383
1.7693,0.3128,40,96,96,141386
1.784,0.3519,39.89,96,96,141389
1.7644,0.3128,39.96,96,96,141393
1.7937,0.3177,39.83,96,96,141396
1.7742,0.3128,39.89,96,96,141400
1.7937,0.3128,40,96,96,141403
1.7889,0.3226,39.89,96,96,141407
1.7644,0.3177,39.96,96,96,141410
1.8133,0.3226,39.77,96,96,141413
1.7937,0.3128,39.89,96,96,141417
1.8133,0.3128,40,96,96,141420
1.8719,0.3177,39.96,96,96,141423
1.9501,0.3177,40.03,96,96,141427
2.175,0.3275,39.7,96,96,141430
2.3509,0.3177,39.89,96,96,141433
2.6197,0.3128,39.93,96,96,141437
2.9032,0.3177,39.96,96,96,141441
3.1476,0.3128,40,96,96,141444
3.3773,0.3372,39.86,96,96,141447
3.3773,0.3177,39.93,96,96,141451
3.26,0.3128,39.86,96,96,141454
3.0596,0.3324,40.1,96,96,141457
2.8397,0.3177,39.96,96,96,141461
2.6686,0.3226,39.8,96,96,141464
2.4047,0.3177,40,96,96,141467
2.2141,0.3226,39.8,96,96,141471
2.0137,0.3226,40,96,96,141474
1.8671,0.3128,39.96,96,96,141477
1.7644,0.3226,39.83,96,96,141480
1.652,0.3128,39.96,96,96,141485
1.6129,0.3177,39.89,96,96,141488
1.5543,0.3128,39.89,96,96,141491
1.5445,0.3128,40,96,96,141495
1.5347,0.3177,39.96,96,96,141498
1.5152,0.3177,39.96,96,96,141501
1.5347,0.3226,39.8,96,96,141505
1.5103,0.3079,40,96,96,141508
1.52,0.3128,40.06,96,96,141511
1.5494,0.3079,39.93,96,96,141515
1.5543,0.3128,39.96,96,96,141518
1.6129,0.3226,39.8,96,96,141521
1.5982,0.3128,39.89,96,96,141526
1.5934,0.3128,40,96,96,141529
1.6178,0.3177,39.93,96,96,141532
1.6178,0.3128,40,96,96,141535
1.6911,0.3275,39.73,96,96,141539
1.6764,0.3177,39.89,96,96,141542
1.6716,0.3128,39.89,96,96,141545
1.696,0.3177,39.93,96,96,141549
1.7058,0.3372,39.96,96,96,141552
1.7644,0.3177,39.83,96,96,141555
1.7498,0.3177,40,96,96,141559
1.7742,0.3128,39.86,96,96,141562
1.7644,0.3128,40.03,96,96,141565
1.7791,0.3372,40,96,96,141570
1.8475,0.3226,39.96,96,96,141573
1.8133,0.3128,40.03,96,96,141576
1.8622,0.3226,39.86,96,96,141579
1.8377,0.3128,40,96,96,141583
1.8524,0.3128,40.03,96,96,141586
1.8866,0.3226,39.86,96,96,141589
1.8768,0.3128,39.96,96,96,141593
1.911,0.3128,39.83,96,96,141596
1.9159,0.3128,39.86,96,96,141599
1.9306,0.3226,40,96,96,141603
1.9697,0.3079,39.89,96,96,141606
1.9648,0.3128,40.03,96,96,141609
2.0626,0.3128,39.77,96,96,141614
2.0235,0.3177,39.89,96,96,141617
2.0283,0.3079,40.03,96,96,141620
2.0577,0.3177,39.86,96,96,141623
2.0577,0.3226,39.96,96,96,141627
2.1554,0.3226,39.7,96,96,141630
2.0919,0.347,39.93,96,96,141633
2.1017,0.3128,39.96,96,96,141637
2.1212,0.3128,39.96,96,96,141640
2.1212,0.3128,40,96,96,141643
2.1848,0.3372,39.8,96,96,141647
2.1408,0.3177,39.96,96,96,141650
2.1359,0.3128,39.93,96,96,141654
2.131,0.3128,39.96,96,96,141657
2.131,0.3128,40,96,96,141661
2.1603,0.3079,39.89,96,96,141664
2.1212,0.3421,39.93,96,96,141667
2.1163,0.3226,39.86,96,96,141671
2.0821,0.3079,39.89,96,96,141674
2.0674,0.3128,39.96,96,96,141677
2.0723,0.3226,39.86,96,96,141681
2.0186,0.3177,39.96,96,96,141684
2.0088,0.3226,39.86,96,96,141687
1.9355,0.3128,39.96,96,96,141691
1.9013,0.3128,39.96,96,96,141694
1.8817,0.3177,39.86,96,96,141698
1.828,0.3177,40,96,96,141701
1.8133,0.3177,39.83,96,96,141705
1.7546,0.3177,40,96,96,141708
1.7546,0.3128,40.03,96,96,141711
1.7204,0.3226,39.89,96,96,141715
1.6813,0.3177,39.96,96,96,141718
1.7107,0.3177,39.73,96,96,141721
1.6667,0.3079,40,96,96,141725
1.6422,0.3128,40.16,96,96,141728
1.6471,0.3177,39.93,96,96,141731
1.6373,0.3128,40,96,96,141735
1.6813,0.3617,39.77,96,96,141739
1.652,0.3177,39.86,96,96,141742
1.6373,0.3128,40.06,96,96,141745
1.6422,0.3421,40.03,96,96,141749
1.6373,0.3128,40,96,96,141752
1.6911,0.3275,40.2,96,96,141755
1.6716,0.3226,39.96,96,96,141759
1.6764,0.3177,39.89,96,96,141762
1.6716,0.3128,39.93,96,96,141765
1.6667,0.3128,40.03,96,96,141769
1.7058,0.3226,39.96,96,96,141772
1.7009,0.3177,39.96,96,96,141775
1.7351,0.3128,39.83,96,96,141779
1.7155,0.3128,40,96,96,141783
1.7204,0.3079,40,96,96,141786
1.7546,0.3275,39.86,96,96,141789
1.74,0.3177,39.96,96,96,141793
1.7693,0.3128,39.8,96,96,141796
1.7498,0.3128,39.89,96,96,141799
1.7546,0.3079,39.96,96,96,141803
1.7791,0.3226,39.86,96,96,141806
1.7595,0.3128,40,96,96,141809
1.7986,0.3177,39.83,96,96,141813
1.7693,0.3226,39.93,96,96,141816
1.7644,0.3128,40,96,96,141819
1.784,0.3177,40.06,96,96,141824
1.7644,0.3128,40.16,96,96,141827
1.8133,0.3226,39.73,96,96,141830
1.7791,0.3128,39.89,96,96,141833
1.7791,0.3128,39.96,96,96,141837
1.7889,0.3177,39.96,96,96,141840
1.784,0.3128,40,96,96,141843
1.8377,0.3226,39.77,96,96,141847
1.7986,0.3177,39.93,96,96,141850
1.7889,0.3128,39.93,96,96,141853
1.7889,0.3177,40,96,96,141857
1.7889,0.3128,39.96,96,96,141860
1.8231,0.3226,39.77,96,96,141863
1.7937,0.3177,39.96,96,96,141868
1.8035,0.3177,39.22,96,96,141871
1.784,0.3177,40,96,96,141874
1.7889,0.3128,39.96,96,96,141877
1.8084,0.3226,39.93,96,96,141881
1.784,0.3372,39.96,96,96,141884
1.8084,0.3177,39.89,96,96,141887
1.7791,0.3128,39.96,96,96,141891
1.784,0.3177,39.96,96,96,141894
1.7937,0.3177,39.89,96,96,141897
1.7889,0.3128,40.13,96,96,141901
1.8133,0.3226,39.83,96,96,141904
1.7791,0.3128,40,96,96,141907
1.7791,0.3128,39.83,96,96,141912
1.8231,0.3226,39.89,96,96,141915
1.7889,0.3128,39.93,96,96,141918
1.8719,0.3177,39.73,96,96,141922
1.8231,0.3079,39.89,96,96,141925
1.8182,0.3128,39.51,96,96,141928
1.8475,0.3177,39.96,96,96,141932
1.8573,0.3128,40,96,96,141935
1.9306,0.3372,39.73,96,96,141938
1.9062,0.3079,39.89,96,96,141941
1.9013,0.3128,39.93,96,96,141945
1.9453,0.3177,40.03,96,96,141948
1.9257,0.3128,40,96,96,141952
1.9795,0.3177,39.77,96,96,141956
1.9599,0.3177,39.96,96,96,141959
1.955,0.3177,39.89,96,96,141962
1.911,0.3128,40.03,96,96,141966
1.8133,0.3128,40,96,96,141970
1.7937,0.3079,39.96,96,96,141974
1.7937,0.3177,39.86,96,96,141977
1.7449,0.3128,40.13,96,96,141980
1.7644,0.3177,39.77,96,96,141984
1.7302,0.3177,39.96,96,96,141987
1.7058,0.3128,39.6,96,96,141990
1.7107,0.3177,39.93,96,96,141993
1.6764,0.3128,40.03,96,96,141998
1.7253,0.3226,39.77,96,96,142001
1.696,0.3177,39.86,96,96,142004
1.6862,0.3079,39.96,96,96,142008
1.696,0.3226,40,96,96,142011
1.6862,0.3128,40,96,96,142014
1.7351,0.3079,39.77,96,96,142018
1.6911,0.3275,39.93,96,96,142021
1.6911,0.3128,39.89,96,96,142024
1.7155,0.3177,40.13,96,96,142028
1.7742,0.3128,39.96,96,96,142031
1.9306,0.3226,39.89,96,96,142034
2.0821,0.3177,40.03,96,96,142039
2.346,0.3128,39.83,96,96,142042
2.61,0.3079,40,96,96,142045
2.8837,0.3079,40.03,96,96,142048
3.1525,0.3226,39.83,96,96,142052
3.2209,0.3177,39.96,96,96,142055
3.2209,0.3079,39.8,96,96,142058
3.0352,0.3128,40,96,96,142062
2.8446,0.3128,40.03,96,96,142065
2.654,0.3226,39.86,96,96,142068
2.4096,0.3177,40.1,96,96,142072
2.2385,0.3128,39.8,96,96,142075
2.0577,0.3128,39.93,96,96,142078
1.8573,0.3128,40.03,96,96,142082
1.74,0.3226,39.86,96,96,142086
1.6276,0.303,40,96,96,142089
1.5982,0.3226,39.77,96,96,142092
1.5005,0.3128,39.96,96,96,142096
1.4712,0.3177,39.93,96,96,142099
1.4663,0.3177,39.96,96,96,142102
1.4467,0.347,39.96,96,96,142106
1.4858,0.3177,39.7,96,96,142109
1.4516,0.3177,39.89,96,96,142112
1.4418,0.3079,39.96,96,96,142115
1.4858,0.3128,39.96,96,96,142119
1.4712,0.3128,40,96,96,142123
1.5298,0.3275,39.8,96,96,142126
1.5298,0.3226,39.89,96,96,142130
1.52,0.3128,39.86,96,96,142133
1.5298,0.3079,39.96,96,96,142136
1.5445,0.3128,39.93,96,96,142140
1.5836,0.3226,39.83,96,96,142143
1.5885,0.3177,39.86,96,96,142146
1.6227,0.3128,39.86,96,96,142150
1.6178,0.3128,40.03,96,96,142153
1.6276,0.3128,39.96,96,96,142156
1.6569,0.3128,39.93,96,96,142160
1.6618,0.3128,40,96,96,142163
1.7058,0.3177,39.86,96,96,142167
1.6911,0.3079,40.03,96,96,142170
1.7058,0.3128,39.96,96,96,142174
1.7302,0.3226,39.93,96,96,142177
1.7351,0.3079,39.96,96,96,142180
1.784,0.3177,39.83,96,96,142184
1.7986,0.3128,39.89,96,96,142187
1.7889,0.3128,40,96,96,142190
1.8182,0.3275,39.93,96,96,142194
1.8182,0.3128,39.96,96,96,142197
1.8768,0.3226,39.7,96,96,142200
1.8671,0.3177,39.89,96,96,142204
1.8671,0.3128,39.96,96,96,142208
1.8817,0.3226,39.96,96,96,142211
1.8817,0.3128,40,96,96,142214
1.9599,0.3079,39.77,96,96,142218
1.9355,0.3128,39.89,96,96,142221
1.9501,0.3128,39.89,96,96,142224
1.9501,0.3079,40.1,96,96,142228
1.9697,0.3177,39.96,96,96,142231
2.0186,0.3226,39.86,96,96,142234
2.0039,0.3177,39.96,96,96,142238
2.0381,0.3421,39.86,96,96,142241
2.0332,0.3079,40.03,96,96,142244
2.043,0.3079,40.06,96,96,142248
2.087,0.3226,39.6,96,96,142252
2.0528,0.3226,39.93,96,96,142255
2.1114,0.3226,39.86,96,96,142258
2.0479,0.3079,39.96,96,96,142262
2.0528,0.3128,40,96,96,142265
2.087,0.3128,39.86,96,96,142268
2.0528,0.3128,39.96,96,96,142272
2.0626,0.3128,39.83,96,96,142275
2.0186,0.3128,39.93,96,96,142278
2.0088,0.3128,40,96,96,142282
2.0137,0.3226,39.86,96,96,142285
1.9648,0.3128,39.96,96,96,142288
1.9746,0.3177,39.77,96,96,142291
1.9013,0.3128,40,96,96,142296
1.8719,0.3079,39.96,96,96,142299
1.8524,0.3177,39.93,96,96,142302
1.7986,0.3128,40,96,96,142306
1.8133,0.3226,39.7,96,96,142309
1.7449,0.3226,39.89,96,96,142312
1.696,0.3128,40,96,96,142316
1.6764,0.347,39.93,96,96,142319
1.652,0.3128,40,96,96,142322
1.6764,0.3275,39.83,96,96,142326
1.6422,0.3177,39.93,96,96,142329
1.6227,0.3128,39.93,96,96,142332
1.6031,0.3128,40.06,96,96,142336
1.5934,0.3128,39.96,96,96,142340
1.6227,0.3226,39.83,96,96,142343
1.608,0.3275,39.96,96,96,142346
1.6276,0.347,39.89,96,96,142350
1.6227,0.3128,40,96,96,142353
1.6227,0.3128,39.96,96,96,142356
1.6422,0.3226,39.93,96,96,142360
1.6422,0.3177,40,96,96,142363
1.6716,0.3079,39.93,96,96,142366
1.652,0.3128,40,96,96,142370
1.652,0.3128,40,96,96,142373
1.6764,0.3079,39.89,96,96,142376
1.6618,0.3177,39.96,96,96,142380
1.7009,0.3177,39.8,96,96,142384
1.6911,0.3079,39.93,96,96,142387
1.696,0.3128,40.06,96,96,142390
1.7253,0.3226,39.89,96,96,142394
1.7107,0.3128,40,96,96,142397
1.7546,0.3226,39.86,96,96,142400
1.7351,0.3128,39.93,96,96,142404
1.7253,0.3128,40.03,96,96,142407
1.74,0.3177,40.1,96,96,142410
1.7302,0.3128,39.96,96,96,142414
1.7791,0.3226,39.7,96,96,142417
1.7449,0.3177,39.86,96,96,142420
1.7449,0.3128,39.93,96,96,142424
1.7546,0.3177,39.96,96,96,142428
1.7546,0.3128,40.03,96,96,142431
1.7986,0.3372,39.83,96,96,142434
1.7742,0.3177,39.93,96,96,142438
1.7791,0.3128,40,96,96,142441
1.7644,0.3177,39.96,96,96,142444
1.7742,0.3079,39.96,96,96,142448
1.8035,0.3763,39.83,96,96,142451
1.7742,0.3177,39.93,96,96,142454
1.7889,0.3177,39.89,96,96,142458
1.7644,0.3226,39.93,96,96,142461
1.7693,0.3079,40.03,96,96,142465
1.7889,0.3226,39.93,96,96,142468
1.7693,0.3128,39.96,96,96,142472
1.7937,0.3128,39.83,96,96,142475
1.7644,0.3128,39.89,96,96,142478
1.7693,0.3128,40,96,96,142482
1.784,0.3177,39.86,96,96,142485
1.7644,0.3226,39.96,96,96,142488
1.7986,0.3177,39.77,96,96,142492
1.7546,0.3128,39.93,96,96,142495
1.7595,0.3128,39.96,96,96,142498
1.7791,0.3226,40.03,96,96,142502
1.7937,0.3177,40,96,96,142505
1.8182,0.3226,39.7,96,96,142509
1.784,0.3177,40,96,96,142513
1.7644,0.3128,39.93,96,96,142516
1.7742,0.3079,40.06,96,96,142519
1.7742,0.3128,40,96,96,142522
1.8328,0.3324,39.83,96,96,142526
1.8084,0.3226,39.93,96,96,142529
1.8084,0.3128,39.96,96,96,142532
1.8133,0.3177,39.96,96,96,142536
1.8328,0.3128,40,96,96,142539
1.8768,0.3226,39.89,96,96,142542
1.8719,0.3128,39.96,96,96,142546
1.9062,0.3177,39.96,96,96,142550
1.8866,0.3128,40,96,96,142553
1.8866,0.3128,39.96,96,96,142557
1.9257,0.3128,39.93,96,96,142560
1.9306,0.3128,40,96,96,142563
1.9697,0.3177,39.86,96,96,142566
1.9453,0.3079,40,96,96,142570
1.9404,0.3128,39.89,96,96,142573
1.955,0.3177,39.86,96,96,142576
1.8377,0.347,40,96,96,142581
1.8035,0.3079,39.96,96,96,142584
1.828,0.3324,39.7,96,96,142588
1.7742,0.3177,40.33,96,96,142592
1.74,0.3079,39.93,96,96,142595
1.7498,0.3177,40,96,96,142599
1.7107,0.3128,39.96,96,96,142602
1.7546,0.3275,39.77,96,96,142605
1.7204,0.3226,39.93,96,96,142609
1.7204,0.3128,39.89,96,96,142612
1.7155,0.3079,39.96,96,96,142615
1.7107,0.3226,40.03,96,96,142618
1.74,0.3226,39.89,96,96,142622
1.7204,0.3177,40.06,96,96,142625
1.7351,0.3177,39.86,96,96,142628
1.7155,0.3128,40,96,96,142632
1.7155,0.3128,40.03,96,96,142636
1.7693,0.3275,39.86,96,96,142639
1.7986,0.3128,39.96,96,96,142643
1.9306,0.3226,39.86,96,96,142646
2.0626,0.3128,39.93,96,96,142649
2.2923,0.3079,40,96,96,142653
2.5953,0.3226,39.86,96,96,142656
2.8446,0.3128,39.96,96,96,142659
3.1329,0.3177,39.8,96,96,142662
3.2551,0.3324,39.86,96,96,142666
3.2698,0.3128,40.03,96,96,142669
3.1916,0.3079,39.96,96,96,142672
2.9814,0.3128,39.96,96,96,142676
2.8397,0.3177,39.77,96,96,142680
2.5318,0.3128,39.93,96,96,142683
2.3167,0.3226,40,96,96,142687
2.1065,0.3177,39.96,96,96,142690
1.9208,0.3324,39.96,96,96,142693
1.8524,0.3275,39.73,96,96,142697
1.6764,0.3177,39.96,96,96,142700
1.5836,0.3128,39.93,96,96,142703
1.52,0.3079,39.96,96,96,142706
1.4907,0.3079,40.06,96,96,142710
1.5005,0.3324,39.83,96,96,142713
1.4614,0.3177,39.93,96,96,142716
1.4663,0.3177,39.83,96,96,142721
1.4516,0.3128,39.96,96,96,142724
1.4663,0.3128,40,96,96,142727
1.4956,0.347,39.83,96,96,142731
1.4907,0.3177,39.96,96,96,142734
1.5249,0.3226,39.86,96,96,142737
1.5152,0.3177,40,96,96,142741
1.5249,0.3128,40,96,96,142744
1.5396,0.3177,39.89,96,96,142747
1.5494,0.3079,40.06,96,96,142750
1.5836,0.3128,39.86,96,96,142754
1.5836,0.3128,40,96,96,142757
1.6031,0.3128,40,96,96,142760
1.6325,0.3177,39.89,96,96,142765
1.6276,0.3128,40.03,96,96,142768
1.6862,0.3177,39.77,96,96,142771
1.6862,0.3177,39.89,96,96,142775
1.7204,0.3128,39.96,96,96,142778
1.7204,0.3177,39.83,96,96,142781
1.7155,0.3226,40.03,96,96,142785
1.7889,0.3226,39.7,96,96,142788
1.7595,0.3177,39.86,96,96,142791
1.7644,0.3128,39.96,96,96,142794
1.7937,0.3177,39.96,96,96,142798
1.7937,0.3128,40,96,96,142801
1.8622,0.3275,39.8,96,96,142804
1.8573,0.3177,39.89,96,96,142809
1.8622,0.3128,39.89,96,96,142812
1.8671,0.3128,40.03,96,96,142815
1.8768,0.3128,39.96,96,96,142819
1.9257,0.3079,39.89,96,96,142822
1.9062,0.3177,40.03,96,96,142825
1.9453,0.3226,39.86,96,96,142829
1.9404,0.3128,39.93,96,96,142832
1.9599,0.3372,40,96,96,142835
2.0137,0.3226,39.86,96,96,142838
1.999,0.3177,39.83,96,96,142842
2.043,0.3128,39.86,96,96,142845
2.0283,0.3128,39.93,96,96,142849
2.043,0.3128,40,96,96,142853
2.0821,0.3177,39.89,96,96,142856
2.0674,0.3226,40,96,96,142859
2.1163,0.3226,39.8,96,96,142863
2.0919,0.3128,39.89,96,96,142866
2.0919,0.3128,39.96,96,96,142869
2.1163,0.3226,39.89,96,96,142872
2.0919,0.3128,40,96,96,142876
2.1359,0.3079,39.73,96,96,142879
2.0772,0.3128,39.93,96,96,142882
2.0772,0.3128,40,96,96,142886
2.0723,0.3177,39.96,96,96,142889
2.0479,0.3128,40,96,96,142893
2.0919,0.3324,39.77,96,96,142897
2.0283,0.3177,39.89,96,96,142900
1.9844,0.3128,39.96,96,96,142903
1.955,0.3128,39.93,96,96,142907
1.9159,0.3128,39.93,96,96,142910
1.9355,0.3275,39.77,96,96,142913
1.8573,0.3177,39.93,96,96,142916
1.8133,0.3128,39.89,96,96,142920
1.7644,0.3079,39.96,96,96,142923
1.7302,0.3128,40,96,96,142926
1.7253,0.3226,39.83,96,96,142930
1.6813,0.3128,39.96,96,96,142934
1.6764,0.3177,39.86,96,96,142937
1.6325,0.3128,40,96,96,142941
1.6227,0.3128,39.96,96,96,142944
1.6178,0.3079,40,96,96,142947
1.608,0.3421,39.96,96,96,142951
1.6618,0.3128,39.86,96,96,142954
1.608,0.3128,40.03,96,96,142957
1.608,0.3128,40.2,96,96,142961
1.6325,0.3226,39.86,96,96,142964
1.6227,0.3128,40.2,96,96,142967
1.6569,0.3177,39.77,96,96,142970
1.6373,0.3128,39.86,96,96,142974
1.6373,0.3079,39.96,96,96,142978
1.6862,0.3177,39.93,96,96,142981
1.6422,0.3128,40.03,96,96,142985
1.7009,0.3226,39.7,96,96,142988
1.6764,0.3177,39.89,96,96,142991
1.6862,0.3128,40,96,96,142995
1.7009,0.3177,39.93,96,96,142998
1.696,0.3421,39.96,96,96,143001
1.7889,0.3275,39.8,96,96,143005
1.7253,0.3177,39.93,96,96,143008
1.7204,0.3275,39.89,96,96,143011
1.7253,0.3177,39.96,96,96,143014
1.7204,0.3275,39.96,96,96,143019
1.7595,0.3226,39.89,96,96,143022
1.74,0.3177,40.1,96,96,143025
1.7595,0.3177,39.67,96,96,143029
1.7449,0.3128,40,96,96,143032
1.7498,0.3128,40.03,96,96,143035
1.784,0.3324,39.86,96,96,143039
1.7595,0.3177,40,96,96,143042
1.7889,0.3177,39.86,96,96,143045
1.7595,0.3128,39.93,96,96,143049
1.7693,0.3128,40.03,96,96,143052
1.7937,0.3177,39.89,96,96,143055
1.7742,0.3128,40,96,96,143059
1.8035,0.3177,39.8,96,96,143063
1.7791,0.3275,39.89,96,96,143066
1.7791,0.3128,40,96,96,143069
1.7986,0.3079,39.83,96,96,143073
1.7791,0.3128,39.86,96,96,143076
1.8231,0.3177,39.73,96,96,143079
1.7742,0.3128,39.93,96,96,143083
1.7742,0.3275,39.96,96,96,143086
1.784,0.3177,40,96,96,143089
1.7742,0.347,39.96,96,96,143093
1.8622,0.3275,39.8,96,96,143096
1.7937,0.3177,39.09,96,96,143099
1.7791,0.3079,39.86,96,96,143104
1.7791,0.3177,39.96,96,96,143107
1.7791,0.3128,40.06,96,96,143110
1.8182,0.3177,39.8,96,96,143113
1.7937,0.3079,39.93,96,96,143117
1.8035,0.3177,39.89,96,96,143120
1.784,0.3226,39.96,96,96,143123
1.7791,0.3128,40,96,96,143127
1.8133,0.3226,39.8,96,96,143130
1.7937,0.3079,39.96,96,96,143133
1.828,0.3226,39.89,96,96,143137
1.8035,0.3177,39.93,96,96,143140
1.8084,0.303,39.96,96,96,143143
1.828,0.3128,39.89,96,96,143148
1.8328,0.3128,39.96,96,96,143151
1.8719,0.3128,39.8,96,96,143154
1.8524,0.3128,39.96,96,96,143157
1.8768,0.3128,40.03,96,96,143161
1.911,0.3128,39.89,96,96,143164
1.9013,0.3128,40,96,96,143167
1.9648,0.3177,39.8,96,96,143171
1.955,0.3128,39.93,96,96,143174
1.9746,0.3128,39.96,96,96,143177
1.9795,0.3177,39.83,96,96,143181
1.9648,0.3226,39.96,96,96,143184
2.0235,0.3226,39.7,96,96,143187
1.8768,0.3177,39.86,96,96,143193
1.8377,0.3079,40.06,96,96,143196
1.8328,0.3177,39.86,96,96,143200
1.7889,0.3177,39.96,96,96,143203
1.7644,0.3128,39.96,96,96,143206
1.7595,0.3372,39.89,96,96,143209
1.7546,0.3177,40,96,96,143213
1.74,0.3226,39.89,96,96,143216
1.7058,0.303,39.96,96,96,143219
1.7009,0.3128,39.96,96,96,143223
1.7253,0.3226,39.86,96,96,143226
1.7009,0.3079,39.96,96,96,143229
1.7449,0.3226,39.83,96,96,143234
1.7155,0.3128,39.77,96,96,143237
1.7155,0.3226,39.96,96,96,143240
1.7351,0.3226,40.16,96,96,143244
1.7107,0.3226,40,96,96,143247
1.7498,0.3177,39.73,96,96,143250
1.7302,0.3128,39.64,96,96,143254
1.7742,0.3177,40,96,96,143257
1.8817,0.3177,39.96,96,96,143260
2.0088,0.3128,39.89,96,96,143263
2.2776,0.3275,39.7,96,96,143267
2.5024,0.3177,39.89,96,96,143270
2.7615,0.3079,40,96,96,143273
3.0205,0.3226,40.03,96,96,143278
3.2014,0.3128,40,96,96,143281
3.3333,0.3275,39.83,96,96,143284
3.1867,0.3177,40,96,96,143288
3.0352,0.3128,39.89,96,96,143291
2.8104,0.3079,40.03,96,96,143294
2.5953,0.3079,40.03,96,96,143297
2.4194,0.3226,39.77,96,96,143301
2.175,0.3177,39.96,96,96,143304
1.9941,0.3079,39.96,96,96,143307
1.8084,0.3128,40.03,96,96,143311
1.6862,0.3177,39.96,96,96,143314
1.6178,0.3226,39.86,96,96,143318
1.5347,0.3128,40,96,96,143322
1.52,0.3128,39.89,96,96,143325
1.4712,0.3128,39.96,96,96,143328
1.4516,0.3079,40,96,96,143332
1.4565,0.3177,39.83,96,96,143335
1.4467,0.3226,40,96,96,143338
1.4761,0.3177,39.77,96,96,143341
1.4663,0.3177,40.1,96,96,143345
1.4761,0.3177,40,96,96,143348
1.4956,0.3177,39.83,96,96,143351
1.5054,0.3128,39.96,96,96,143355
1.564,0.3226,39.16,96,96,143358
1.5543,0.3128,39.89,96,96,143362
1.564,0.3226,40.03,96,96,143366
1.5787,0.3177,39.86,96,96,143369
1.5787,0.3324,39.93,96,96,143372
1.6471,0.3275,39.73,96,96,143376
1.6325,0.3421,39.89,96,96,143379
1.6422,0.3128,39.89,96,96,143382
1.6569,0.3177,39.96,96,96,143385
1.6618,0.3128,40.03,96,96,143389
1.7155,0.3226,39.89,96,96,143392
1.7058,0.3177,39.96,96,96,143395
1.7253,0.3177,39.89,96,96,143399
1.7253,0.3421,40.03,96,96,143403
1.7449,0.3128,39.96,96,96,143406
1.7791,0.3177,39.93,96,96,143410
1.7742,0.3226,40,96,96,143413
1.8133,0.3226,39.86,96,96,143416
1.8084,0.347,40.03,96,96,143420
1.828,0.3177,39.96,96,96,143423
1.8719,0.3226,39.89,96,96,143426
1.8573,0.3421,40,96,96,143430
1.8964,0.3177,39.83,96,96,143433
1.9013,0.3128,39.96,96,96,143436
1.911,0.3372,40.03,96,96,143439
1.955,0.3226,39.86,96,96,143443
1.9453,0.3177,40.1,96,96,143447
1.999,0.3177,39.73,96,96,143450
1.9892,0.3128,39.96,96,96,143454
1.9941,0.3128,39.54,96,96,143457
2.0332,0.3226,39.96,96,96,143460
2.0283,0.3128,40,96,96,143464
2.1017,0.3226,39.7,96,96,143467
2.0626,0.3177,39.89,96,96,143470
2.0577,0.3079,40.1,96,96,143473
2.0674,0.3177,39.96,96,96,143477
2.0772,0.3128,39.96,96,96,143480
2.1457,0.3275,39.8,96,96,143483
2.1017,0.3177,39.86,96,96,143488
2.0968,0.3128,39.89,96,96,143491
2.087,0.3177,40,96,96,143494
2.0821,0.3079,40,96,96,143498
2.1163,0.3226,39.67,96,96,143501
2.0821,0.3177,39.93,96,96,143504
2.0772,0.3177,39.89,96,96,143507
2.0332,0.3079,40.06,96,96,143511
2.0137,0.3079,40,96,96,143514
2.0235,0.3226,39.83,96,96,143517
1.9697,0.3177,39.96,96,96,143521
1.9599,0.3226,39.86,96,96,143524
1.8866,0.3177,40,96,96,143527
1.8475,0.3128,40,96,96,143532
1.8182,0.3177,39.93,96,96,143535
1.7742,0.3128,39.96,96,96,143538
1.7644,0.3372,39.83,96,96,143541
1.7058,0.3079,40.03,96,96,143545
1.6813,0.3128,40,96,96,143548
1.6764,0.3226,39.86,96,96,143551
1.6422,0.3177,39.96,96,96,143555
1.6667,0.3226,39.73,96,96,143558
1.6618,0.3177,39.93,96,96,143561
1.6178,0.3128,40,96,96,143565
1.6569,0.3275,39.93,96,96,143568
1.6178,0.3128,39.96,96,96,143571
1.6618,0.3226,39.7,96,96,143576
1.6325,0.3177,39.86,96,96,143579
1.6227,0.3128,39.89,96,96,143582
1.6276,0.3177,39.96,96,96,143586
1.6276,0.3128,39.96,96,96,143589
1.6862,0.3275,39.83,96,96,143592
1.6667,0.3177,39.93,96,96,143595
1.6813,0.3128,39.89,96,96,143599
1.6764,0.3275,39.96,96,96,143602
1.6813,0.3128,40,96,96,143605
1.7155,0.3226,39.09,96,96,143609
1.7009,0.3421,39.96,96,96,143612
1.7253,0.3177,39.83,96,96,143616
1.7107,0.3128,40.03,96,96,143620
1.7253,0.3128,40,96,96,143623
1.7546,0.3226,39.86,96,96,143626
1.7302,0.3421,39.93,96,96,143630
1.784,0.3128,39.89,96,96,143633
1.7351,0.3128,39.89,96,96,143636
1.7449,0.3128,40.03,96,96,143639
1.7693,0.3177,39.83,96,96,143643
1.7546,0.3128,40.03,96,96,143646
1.7889,0.3177,40.06,96,96,143649
1.7742,0.3177,39.96,96,96,143653
1.7595,0.3128,40,96,96,143656
1.784,0.3226,40,96,96,143660
1.7693,0.3324,40.03,96,96,143664
1.8573,0.3226,39.73,96,96,143667
1.784,0.3324,39.89,96,96,143670
1.8084,0.3128,39.93,96,96,143674
1.7937,0.3177,40,96,96,143677
1.784,0.3177,40,96,96,143680
1.8377,0.3324,39.77,96,96,143683
1.8035,0.3226,39.93,96,96,143687
1.7937,0.3128,40,96,96,143690
1.7937,0.3177,39.96,96,96,143693
1.7937,0.3128,39.96,96,96,143697
1.8328,0.3226,39.86,96,96,143700
1.8084,0.3177,39.96,96,96,143704
1.8182,0.3177,39.86,96,96,143708
1.7986,0.3324,40,96,96,143711
1.8035,0.3128,39.96,96,96,143714
1.8328,0.3079,39.09,96,96,143718
1.8084,0.3177,39.89,96,96,143721
1.8328,0.3226,39.89,96,96,143724
1.7986,0.3128,39.96,96,96,143727
1.7937,0.3079,39.38,96,96,143731
1.8084,0.3128,39.93,96,96,143734
1.7986,0.3177,40.03,96,96,143737
1.828,0.3128,39.83,96,96,143741
1.8035,0.3177,40,96,96,143745
1.8084,0.3128,40,96,96,143748
1.8328,0.3226,39.89,96,96,143752
1.8133,0.3226,39.96,96,96,143755
1.8622,0.3226,39.8,96,96,143758
1.8475,0.3177,39.83,96,96,143762
1.8426,0.3226,39.96,96,96,143765
1.8719,0.3177,39.96,96,96,143768
1.8671,0.3275,40,96,96,143771
1.9599,0.3275,39.7,96,96,143775
1.911,0.3177,39.86,96,96,143778
1.911,0.3079,39.93,96,96,143781
1.9257,0.3226,39.96,96,96,143785
1.9257,0.3128,39.96,96,96,143789
1.9844,0.3275,39.89,96,96,143792
1.9648,0.3177,39.93,96,96,143796
1.9795,0.3128,39.93,96,96,143799
1.9746,0.3177,39.93,96,96,143802
1.8768,0.3079,40,96,96,143807
1.8622,0.3128,40.03,96,96,143810
1.8671,0.3226,40.03,96,96,143814
1.8328,0.3128,40,96,96,143817
1.8328,0.3177,39.8,96,96,143820
1.7937,0.3079,39.89,96,96,143824
1.7693,0.3275,39.96,96,96,143827
1.7742,0.3079,39.96,96,96,143831
1.74,0.3128,39.89,96,96,143834
1.7693,0.3519,39.73,96,96,143838
1.7351,0.3128,39.89,96,96,143841
1.7302,0.3128,40,96,96,143844
1.74,0.3226,39.96,96,96,143848
1.74,0.3128,40,96,96,143851
1.7889,0.3275,39.73,96,96,143854
1.7498,0.3177,39.89,96,96,143858
1.74,0.3128,39.93,96,96,143861
1.74,0.3177,40,96,96,143864
1.7742,0.3226,39.96,96,96,143868
1.8133,0.3275,39.86,96,96,143872
1.8475,0.3177,39.96,96,96,143875
1.9892,0.3128,39.86,96,96,143878
2.1163,0.3128,40,96,96,143882
2.346,0.3128,40.03,96,96,143885
2.6686,0.3226,39.83,96,96,143888
2.913,0.3177,40,96,96,143892
3.1818,0.3177,39.86,96,96,143895
3.2649,0.3372,39.96,96,96,143898
3.26,0.3128,39.96,96,96,143902
3.1867,0.3226,39.93,96,96,143905
2.9717,0.3079,40.1,96,96,143908
2.7908,0.3128,39.83,96,96,143911
2.5318,0.3226,39.93,96,96,143916
2.3167,0.3128,40.03,96,96,143919
2.1359,0.3177,39.89,96,96,143922
1.9501,0.3177,39.96,96,96,143926
1.8475,0.3177,39.8,96,96,143929
1.7009,0.3226,40.03,96,96,143932
1.6227,0.3177,39.96,96,96,143936
1.5787,0.3177,39.93,96,96,143939
1.52,0.3128,39.96,96,96,143942
1.5445,0.3226,39.73,96,96,143946
1.4956,0.3079,39.96,96,96,143949
1.4809,0.3128,40.03,96,96,143952
1.4956,0.3177,39.93,96,96,143955
1.4907,0.3128,40.1,96,96,143960
1.5494,0.347,39.77,96,96,143963
1.5298,0.3226,39.96,96,96,143966
1.5396,0.3079,39.93,96,96,143970
1.5543,0.3177,40,96,96,143973
1.5591,0.3128,40.03,96,96,143976
1.5982,0.3226,39.86,96,96,143980
1.5934,0.3226,40,96,96,143983
1.6178,0.3177,39.86,96,96,143986
1.6227,0.3128,39.93,96,96,143990
1.6422,0.3128,39.96,96,96,143993
1.6716,0.3421,39.89,96,96,143996
1.6764,0.3128,40.03,96,96,144001
1.7155,0.3226,39.96,96,96,144004
1.7107,0.3128,40,96,96,144007
1.7204,0.3128,40,96,96,144010
1.7546,0.3079,39.93,96,96,144014
1.74,0.3226,39.96,96,96,144017
1.7889,0.3128,39.8,96,96,144020
1.7644,0.3128,39.89,96,96,144024
1.7791,0.3128,40.03,96,96,144027
1.8426,0.3177,39.89,96,96,144030
1.8084,0.3128,40,96,96,144034
1.8622,0.3079,39.77,96,96,144037
1.8475,0.3128,39.89,96,96,144040
1.8671,0.3128,39.96,96,96,144045
1.8866,0.3079,39.96,96,96,144048
1.8915,0.3079,40,96,96,144051
1.9599,0.3226,39.67,96,96,144054
1.9257,0.3128,39.86,96,96,144058
1.9306,0.3128,40,96,96,144061
1.9453,0.3128,40.2,96,96,144064
1.9892,0.3128,40,96,96,144068
2.0332,0.3275,39.83,96,96,144071
1.999,0.3177,39.83,96,96,144074
2.0186,0.3128,39.93,96,96,144078
2.0235,0.3128,39.96,96,96,144081
2.0332,0.3128,40,96,96,144084
2.087,0.3226,39.83,96,96,144088
2.0626,0.3275,39.93,96,96,144092
2.0919,0.3177,39.83,96,96,144095
2.0674,0.3128,40.1,96,96,144098
2.0626,0.3079,40.2,96,96,144102
2.1261,0.3519,39.89,96,96,144105
2.0626,0.3128,40,96,96,144108
2.0919,0.3226,39.89,96,96,144112
2.043,0.3128,40.1,96,96,144115
2.0283,0.3128,39.96,96,96,144118
2.0332,0.3128,39.89,96,96,144121
2.0088,0.3079,40,96,96,144125
2.0186,0.3079,39.86,96,96,144129
1.9599,0.3421,39.96,96,96,144132
1.9257,0.3128,40,96,96,144136
1.911,0.3177,39.89,96,96,144139
1.8475,0.3128,39.96,96,96,144142
1.8524,0.3226,39.77,96,96,144146
1.7889,0.3079,39.96,96,96,144149
1.74,0.3128,39.96,96,96,144152
1.7253,0.3177,39.89,96,96,144155
1.6667,0.3079,40.03,96,96,144159
1.6764,0.3226,39.7,96,96,144162
1.6178,0.3128,39.89,96,96,144165
1.5934,0.3079,39.93,96,96,144169
1.5836,0.3519,39.96,96,96,144173
1.5543,0.3128,40.03,96,96,144176
1.5982,0.3275,39.8,96,96,144180
1.5591,0.3372,39.96,96,96,144183
1.5543,0.3128,39.93,96,96,144186
1.5494,0.3128,40,96,96,144190
1.5494,0.3128,40,96,96,144193
1.5689,0.3079,39.89,96,96,144196
1.5543,0.3079,39.96,96,96,144199
1.5689,0.3128,39.77,96,96,144203
1.5591,0.3128,39.96,96,96,144206
1.564,0.3128,40,96,96,144209
1.6031,0.3226,39.96,96,96,144214
1.6031,0.3177,39.96,96,96,144217
1.608,0.3177,39.89,96,96,144220
1.5982,0.3128,40,96,96,144224
1.608,0.3079,40,96,96,144227
1.6422,0.3128,39.89,96,96,144230
1.6178,0.3128,40,96,96,144233
1.6422,0.3128,39.83,96,96,144237
1.6276,0.3128,39.93,96,96,144240
1.6325,0.3128,39.96,96,96,144243
1.6569,0.3226,39.86,96,96,144247
1.652,0.3128,39.96,96,96,144250
1.7253,0.3177,39.8,96,96,144253
1.6569,0.3128,39.93,96,96,144258
1.6618,0.3226,40,96,96,144261
1.6764,0.3177,39.93,96,96,144264
1.6667,0.3079,39.96,96,96,144268
1.7204,0.3226,39.7,96,96,144271
1.6862,0.3079,39.86,96,96,144274
1.6667,0.3128,40.1,96,96,144277
1.6716,0.3128,39.96,96,96,144281
1.6716,0.3128,40,96,96,144284
1.7204,0.3226,39.83,96,96,144287
1.6911,0.3177,39.89,96,96,144291
1.6764,0.3079,39.89,96,96,144294
1.6667,0.3128,40,96,96,144297
1.6667,0.3128,39.96,96,96,144302
1.696,0.3177,39.89,96,96,144305
1.6813,0.3128,39.86,96,96,144308
1.7009,0.3226,39.86,96,96,144312
1.6716,0.3128,40,96,96,144315
1.6667,0.3128,40.06,96,96,144318
1.6764,0.3079,39.93,96,96,144321
1.6764,0.3128,39.93,96,96,144325
1.7058,0.3128,39.89,96,96,144328
1.6764,0.3177,39.96,96,96,144331
1.6813,0.3128,39.96,96,96,144335
1.696,0.3372,39.89,96,96,144338
1.6667,0.3128,40,96,96,144342
1.7009,0.3177,39.77,96,96,144346
1.6862,0.3226,39.93,96,96,144349
1.6813,0.3128,39.96,96,96,144352
1.696,0.3372,39.89,96,96,144356
1.6764,0.3128,39.96,96,96,144359
1.7204,0.3226,39.73,96,96,144362
1.696,0.3128,39.86,96,96,144366
1.6911,0.3177,40,96,96,144369
1.7058,0.3177,39.96,96,96,144372
1.7009,0.3079,40.06,96,96,144375
1.7595,0.3275,39.7,96,96,144379
1.7302,0.3177,39.89,96,96,144382
1.7302,0.3128,39.93,96,96,144386
1.74,0.3128,40.06,96,96,144390
1.7498,0.3128,39.96,96,96,144393
1.8035,0.3226,39.86,96,96,144396
1.7889,0.3177,39.8,96,96,144400
1.8035,0.3079,39.89,96,96,144403
1.8035,0.3128,39.96,96,96,144406
1.8182,0.3079,40.1,96,96,144409
1.8622,0.3177,39.83,96,96,144413
1.7791,0.3177,39.89,96,96,144417
1.7351,0.3128,39.96,96,96,144421
1.7449,0.3177,39.77,96,96,144424
1.7009,0.303,39.93,96,96,144428
1.6716,0.3226,40,96,96,144432
1.6667,0.3177,39.89,96,96,144435
1.6276,0.3079,40.2,96,96,144438
1.6471,0.3226,39.73,96,96,144442
1.5934,0.3128,39.93,96,96,144445
1.5787,0.3128,40,96,96,144448
1.5787,0.3177,39.96,96,96,144452
1.5689,0.3079,40,96,96,144455
1.6178,0.3275,40,96,96,144458
1.5885,0.3324,39.93,96,96,144461
1.5885,0.3128,39.89,96,96,144465
1.5836,0.3128,40.06,96,96,144468
1.5836,0.3372,39.96,96,96,144472
1.6129,0.3177,39.83,96,96,144476
1.5836,0.347,39.93,96,96,144479
1.5885,0.3128,39.86,96,96,144482
1.608,0.3128,39.96,96,96,144486
1.6764,0.3128,40.06,96,96,144489
1.8231,0.3226,40,96,96,144492
1.9844,0.3128,40,96,96,144496
2.2678,0.3177,39.86,96,96,144499
