2.0137,0.0635,40.03,78,98,227990
2.0039,0.0587,40.13,78,98,227994
2.0626,0.0733,39.89,78,98,227997
2.0283,0.0587,40.03,78,98,228000
2.0186,0.0538,40.13,78,98,228003
2.0283,0.0635,40.2,78,98,228007
2.043,0.0587,40.16,78,98,228011
2.0723,0.0733,40,78,98,228014
2.0332,0.0635,40.1,78,98,228018
2.0235,0.0538,40.06,78,98,228021
1.999,0.0929,40.16,78,98,228024
1.9844,0.0587,40.16,78,98,228027
1.999,0.0342,39.96,78,98,228031
1.9404,0.0635,40.13,78,98,228034
1.9257,0.0684,40.1,78,98,228037
1.8817,0.0342,40.13,78,98,228041
1.8524,0.0587,40.16,78,98,228044
1.8573,0.0684,40.03,78,98,228047
1.8035,0.0538,40.16,78,98,228051
1.8182,0.0635,40.06,78,98,228055
1.7449,0.0587,40.16,78,98,228058
1.7253,0.0587,40.03,78,98,228061
1.7204,0.0635,40.06,78,98,228065
1.7058,0.0538,40.13,78,98,228068
1.696,0.0587,40,78,98,228071
1.6618,0.0587,40.06,78,98,228075
1.652,0.0538,40.13,78,98,228078
1.696,0.0538,40.06,78,98,228081
1.652,0.0587,40.13,78,98,228085
1.6862,0.0587,39.28,78,98,228088
1.6618,0.0831,40.06,78,98,228091
1.6716,0.0587,40.16,78,98,228094
1.6618,0.0635,40.33,78,98,228099
1.652,0.0635,40.16,78,98,228102
1.7058,0.0684,39.93,78,98,228105
1.6813,0.0635,40.1,78,98,228109
1.6716,0.0538,40.2,78,98,228112
1.7107,0.0635,40.13,78,98,228115
1.6764,0.0587,40.16,78,98,228119
1.7351,0.0733,39.96,78,98,228122
1.7107,0.0684,40.06,78,98,228125
1.7058,0.0538,40.1,78,98,228128
1.7107,0.0635,40.13,78,98,228132
1.7155,0.0587,40.16,78,98,228135
1.7546,0.0733,40.26,78,98,228139
1.7449,0.0684,40.1,78,98,228143
1.7546,0.0587,40.06,78,98,228146
1.74,0.0587,40.16,78,98,228149
1.74,0.0782,40.16,78,98,228153
1.7693,0.0538,40,78,98,228156
1.7498,0.0587,39.89,78,98,228159
1.7742,0.0733,40.03,78,98,228162
1.7595,0.0587,40.2,78,98,228166
1.7937,0.0587,40.16,78,98,228169
1.7889,0.0635,40.13,78,98,228172
1.7644,0.0782,40.1,78,98,228176
1.7937,0.0978,40,78,98,228179
1.8035,0.0587,40.13,78,98,228183
1.784,0.0587,40.16,78,98,228187
1.8035,0.0587,40,78,98,228190
1.784,0.0635,40.16,78,98,228193
1.8084,0.0587,39.93,78,98,228196
1.784,0.0587,40.2,78,98,228200
1.7937,0.0587,40.16,78,98,228203
1.8231,0.0538,40.1,78,98,228206
1.7986,0.0587,40.13,78,98,228210
1.8377,0.0684,39.89,78,98,228213
1.8084,0.0635,40.1,78,98,228216
1.7986,0.0587,40.16,78,98,228220
1.8035,0.0635,40.13,78,98,228224
1.8084,0.0587,40.16,78,98,228227
1.8622,0.0782,39.89,78,98,228230
1.8377,0.0635,40,78,98,228234
1.828,0.0635,40.13,78,98,228237
1.828,0.0587,40.13,78,98,228241
1.8084,0.088,40.13,78,98,228244
1.8084,0.0587,40.16,78,98,228247
1.8328,0.0684,40.13,78,98,228251
1.8182,0.0587,40.2,78,98,228254
1.8377,0.0782,40.1,78,98,228257
1.8035,0.0587,40.16,78,98,228261
1.8035,0.0587,40.36,78,98,228264
1.828,0.0684,40.03,78,98,228268
1.8035,0.0342,40.16,78,98,228271
1.828,0.0587,40,78,98,228275
1.8035,0.0587,40.03,78,98,228278
1.8035,0.0831,40.16,78,98,228281
1.828,0.0635,40.06,78,98,228285
1.8133,0.0587,40.16,78,98,228288
1.8475,0.0587,39.89,78,98,228291
1.828,0.0587,40.1,78,98,228295
1.8182,0.0538,40.16,78,98,228298
1.8377,0.0684,40.16,78,98,228301
1.8133,0.0635,40.13,78,98,228304
1.8915,0.0587,39.89,78,98,228308
1.8231,0.0587,40.13,78,98,228312
1.8426,0.0538,40.16,78,98,228315
1.8231,0.0635,40.13,78,98,228319
1.8182,0.0538,40.16,78,98,228322
1.8719,0.0733,39.96,78,98,228325
1.8377,0.0684,40.06,78,98,228329
1.828,0.1026,40.06,78,98,228332
1.828,0.0635,40.13,78,98,228335
1.8231,0.0587,40.23,78,98,228339
1.8817,0.0684,39.96,78,98,228342
1.828,0.0635,40.16,78,98,228345
1.8475,0.0587,40.1,78,98,228348
1.8426,0.0782,40.13,78,98,228353
1.8475,0.0587,40.23,78,98,228356
1.8866,0.0635,40,78,98,228359
1.8719,0.0635,40.06,78,98,228363
1.8915,0.0635,40.03,78,98,228366
1.8719,0.0538,40.13,78,98,228369
1.8817,0.0587,40.16,78,98,228373
1.9013,0.0635,40.1,78,98,228376
1.9013,0.0635,40.16,78,98,228379
1.9355,0.0587,40.03,78,98,228382
1.911,0.0635,40.16,78,98,228386
1.9257,0.0538,40.16,78,98,228389
1.9453,0.0635,40.13,78,98,228392
1.9355,0.0587,40.16,78,98,228397
1.9501,0.0587,39.96,78,98,228400
1.9159,0.0635,40.1,78,98,228403
1.8866,0.0489,40.16,78,98,228407
1.8866,0.0635,40.1,78,98,228410
1.8524,0.0587,40.13,78,98,228413
1.8817,0.0635,40.13,78,98,228416
1.8524,0.0635,40.1,78,98,228420
1.8084,0.0587,40.2,78,98,228423
1.8133,0.0635,40.2,78,98,228426
1.7986,0.0782,40.16,78,98,228430
1.8475,0.0635,39.96,78,98,228433
1.8084,0.0635,40.06,78,98,228436
1.7889,0.0538,40.13,78,98,228441
1.7889,0.0635,40.16,78,98,228444
1.784,0.0587,40.16,78,98,228447
1.828,0.0733,40.03,78,98,228450
1.7937,0.0635,40.1,78,98,228454
1.7937,0.0489,40.06,78,98,228457
1.7791,0.0635,40.16,78,98,228460
1.7791,0.0587,40.16,78,98,228464
1.8182,0.0635,40.1,78,98,228467
1.7986,0.0587,40.13,78,98,228470
1.8182,0.0587,40.06,78,98,228474
1.7937,0.0782,40.16,78,98,228477
1.828,0.0538,40.16,78,98,228481
1.828,0.0733,40.06,78,98,228484
1.8084,0.0635,40.16,78,98,228488
1.828,0.0635,40.06,78,98,228491
1.7644,0.0587,40.23,78,98,228494
1.7253,0.0635,40.16,78,98,228498
1.7155,0.0635,40,78,98,228501
1.7546,0.0587,40.16,78,98,228504
1.9257,0.0635,40,78,98,228508
2.131,0.0587,40.16,78,98,228511
2.434,0.0635,40.16,78,98,228514
2.7859,0.0635,40.1,78,98,228517
3.0841,0.0587,40.16,78,98,228521
3.4262,0.0635,39.93,78,98,228525
3.5484,0.0733,40.06,78,98,228528
3.4946,0.0538,40.16,78,98,228532
3.3236,0.0635,40.13,78,98,228535
2.9814,0.0831,40.23,78,98,228538
2.6931,0.0684,39.86,78,98,228542
2.3021,0.0635,40.06,78,98,228545
2.0332,0.0587,40.13,78,98,228548
1.8671,0.0538,40.13,78,98,228551
1.7302,0.0587,40.13,78,98,228555
1.7009,0.0733,39.96,78,98,228558
1.6178,0.0635,40.1,78,98,228561
1.564,0.0538,40.1,78,98,228566
1.5396,0.0538,40.16,78,98,228569
1.5347,0.088,40.16,78,98,228572
1.5591,0.0733,40.06,78,98,228576
1.5298,0.0635,40.13,78,98,228579
1.5396,0.0587,40.06,78,98,228582
1.5347,0.0635,40.16,78,98,228585
1.5445,0.0587,40.16,78,98,228589
1.5885,0.0684,39.96,78,98,228592
1.564,0.0538,40.16,78,98,228595
1.6031,0.0635,40.06,78,98,228599
1.5836,0.0587,40.2,78,98,228602
1.5982,0.0587,40.16,78,98,228605
1.6325,0.0684,40.06,78,98,228610
1.6227,0.0587,40.16,78,98,228613
1.652,0.0587,40.03,78,98,228616
1.6373,0.0538,40.1,78,98,228619
1.6422,0.0587,40.16,78,98,228623
1.6764,0.0635,40.06,78,98,228626
1.6667,0.0684,40.13,78,98,228629
1.7058,0.0635,39.93,78,98,228633
1.6813,0.0587,40.2,78,98,228636
1.6862,0.0538,40.23,78,98,228639
1.696,0.0342,40.1,78,98,228643
1.7058,0.0587,40.16,78,98,228646
1.7595,0.0978,39.89,78,98,228649
1.7449,0.0342,40.1,78,98,228654
1.74,0.0587,40.16,78,98,228657
1.7498,0.0684,40.13,78,98,228660
1.7546,0.0587,40.16,78,98,228663
1.8133,0.0733,39.96,78,98,228667
1.7986,0.0635,40.1,78,98,228670
1.7889,0.0587,40.1,78,98,228673
1.7937,0.0635,40.13,78,98,228677
1.7986,0.0831,40.23,78,98,228680
1.8426,0.0684,40.03,78,98,228683
1.828,0.0635,39.96,78,98,228687
1.8377,0.0587,40.06,78,98,228690
1.8328,0.0684,40.16,78,98,228694
1.8377,0.0587,40.16,78,98,228697
1.8671,0.0684,40.03,78,98,228701
1.8622,0.0635,40.13,78,98,228704
1.8964,0.0635,40.03,78,98,228707
1.8817,0.0684,40.13,78,98,228711
1.8964,0.0684,40.16,78,98,228714
1.9355,0.0684,40.03,78,98,228717
1.9062,0.0587,40.13,78,98,228721
1.9453,0.0684,40.03,78,98,228724
1.9208,0.0538,40.1,78,98,228727
1.9453,0.0587,40.16,78,98,228730
1.9697,0.0635,40.06,78,98,228734
1.9599,0.088,40.16,78,98,228738
2.0235,0.0587,39.93,78,98,228741
1.9795,0.0635,40.06,78,98,228745
1.9844,0.0587,40.33,78,98,228748
2.0186,0.0684,40.06,78,98,228751
1.999,0.0538,40.16,78,98,228755
2.0626,0.0684,39.93,78,98,228758
2.0137,0.0587,40.16,78,98,228761
2.0186,0.0587,40.16,78,98,228764
2.0283,0.0684,40.13,78,98,228768
2.0332,0.0587,40.16,78,98,228771
2.0919,0.0733,39.89,78,98,228774
2.0528,0.0635,40.06,78,98,228779
2.0332,0.0538,40.13,78,98,228782
2.0235,0.0635,40.16,78,98,228785
2.0088,0.0635,40.16,78,98,228789
2.0528,0.088,39.96,78,98,228792
1.9941,0.0635,40.1,78,98,228795
1.9746,0.0587,40.1,78,98,228798
1.9404,0.0635,40.16,78,98,228802
1.911,0.0587,40.23,78,98,228805
1.9208,0.0684,40.03,78,98,228808
1.8768,0.0635,40.13,78,98,228812
1.8573,0.0635,40.1,78,98,228815
1.8133,0.0684,40.13,78,98,228818
1.7791,0.0684,40.2,78,98,228823
1.7693,0.0831,40.06,78,98,228826
1.74,0.0684,40.13,78,98,228829
1.7449,0.0635,40.03,78,98,228832
1.7107,0.0635,40.2,78,98,228836
1.696,0.0587,40.26,78,98,228839
1.7058,0.0635,40.1,78,98,228842
1.6667,0.0684,40.13,78,98,228846
1.652,0.0587,40.13,78,98,228849
1.6911,0.0684,39.89,78,98,228853
1.6716,0.0782,40.1,78,98,228856
1.6618,0.0635,40.2,78,98,228859
1.6813,0.0635,40.1,78,98,228864
1.6716,0.0587,40.16,78,98,228867
1.7204,0.0733,39.89,78,98,228870
1.6911,0.0635,40.03,78,98,228873
1.6813,0.0538,40.13,78,98,228877
1.6911,0.0684,40.16,78,98,228880
1.6911,0.0587,40.16,78,98,228883
1.7351,0.0733,40.03,78,98,228887
1.7253,0.0635,40.1,78,98,228890
1.7253,0.0587,40.06,78,98,228893
1.7204,0.0635,40.2,78,98,228897
1.7253,0.0684,40.23,78,98,228900
1.7644,0.0684,40,78,98,228903
1.7351,0.0635,40.13,78,98,228907
1.7791,0.0684,40,78,98,228911
1.74,0.0635,40.16,78,98,228914
1.7449,0.0587,40.16,78,98,228917
1.784,0.0635,40,78,98,228921
1.7791,0.0587,40.13,78,98,228924
1.7937,0.0635,40.06,78,98,228927
1.7595,0.0587,40.13,78,98,228931
1.7644,0.0831,40.23,78,98,228934
1.784,0.0342,40.03,78,98,228937
1.7742,0.0635,40.2,78,98,228940
1.7986,0.0635,39.96,78,98,228944
1.7693,0.0587,40.16,78,98,228947
1.7791,0.0587,40.16,78,98,228951
1.7986,0.0684,40.13,78,98,228955
1.7889,0.0635,40.16,78,98,228958
1.828,0.0684,39.96,78,98,228961
1.8035,0.0635,40.06,78,98,228965
1.784,0.0782,40.16,78,98,228968
1.7986,0.0684,40.13,78,98,228971
1.7937,0.0635,40.16,78,98,228974
1.8426,0.0733,39.86,78,98,228978
1.8035,0.0635,40.06,78,98,228981
1.7937,0.0587,40.16,78,98,228984
1.7986,0.0635,40.2,78,98,228988
1.7889,0.0635,40.16,78,98,228992
1.8475,0.0831,40,78,98,228995
1.8182,0.0684,40.06,78,98,228999
1.8084,0.0635,40.06,78,98,229002
1.7937,0.0538,40.16,78,98,229005
1.7889,0.0587,40.16,78,98,229008
1.8182,0.0733,40.06,78,98,229012
1.7986,0.0684,40.23,78,98,229015
1.8182,0.0635,40.03,78,98,229018
1.7986,0.0733,40.2,78,98,229022
1.7986,0.0587,40.16,78,98,229025
1.828,0.0538,40,78,98,229028
1.7986,0.0635,40.16,78,98,229032
1.8231,0.1075,40.06,78,98,229036
1.7937,0.0587,40.13,78,98,229039
1.8035,0.0538,40.13,78,98,229042
1.8182,0.0684,40.03,78,98,229046
1.7986,0.0635,40.13,78,98,229049
1.8231,0.0538,40.03,78,98,229052
1.7986,0.0587,40.1,78,98,229056
1.7986,0.0635,40.16,78,98,229059
1.8182,0.0538,40.03,78,98,229062
1.7986,0.0635,40.16,78,98,229066
1.8328,0.0635,39.89,78,98,229069
1.8035,0.0587,40.13,78,98,229072
1.8133,0.0587,39.96,78,98,229076
1.828,0.0684,40.1,78,98,229080
1.8133,0.0635,40.16,78,98,229083
1.8524,0.0684,39.06,78,98,229086
1.8182,0.0684,40.06,78,98,229090
1.8035,0.0587,40.16,78,98,229093
1.8133,0.0684,40.13,78,98,229096
1.8133,0.0635,40.2,78,98,229100
1.8622,0.088,39.96,78,98,229103
1.8133,0.0684,40.1,78,98,229106
1.8084,0.0587,40.1,78,98,229110
1.8133,0.0635,40.16,78,98,229113
1.8133,0.0587,40.16,78,98,229116
1.8524,0.0684,40.03,78,98,229120
1.828,0.0684,40.33,78,98,229124
1.8328,0.0733,40.1,78,98,229127
1.8182,0.0635,40.16,78,98,229130
1.8182,0.0635,40.23,78,98,229134
1.8426,0.0733,40.1,78,98,229137
1.8377,0.0635,40.1,78,98,229140
1.8475,0.0635,40.03,78,98,229144
1.8182,0.0635,40.2,78,98,229147
1.8182,0.0489,40.16,78,98,229150
1.8573,0.0733,40.03,78,98,229153
1.828,0.0635,40.16,78,98,229157
1.8524,0.0587,40,78,98,229160
1.8377,0.0538,40.1,78,98,229164
1.8182,0.0635,40.16,78,98,229168
1.8328,0.0684,40.06,78,98,229171
1.8377,0.0587,40.16,78,98,229174
1.8524,0.0342,39.93,78,98,229178
1.8328,0.0587,40.03,78,98,229181
1.8231,0.0587,40.23,78,98,229184
1.8475,0.0733,40.1,78,98,229187
1.8231,0.0635,40.16,78,98,229191
1.8671,0.0684,39.93,78,98,229194
1.8231,0.0587,40.1,78,98,229197
1.828,0.0635,40.2,78,98,229201
1.8328,0.0635,40.23,78,98,229204
1.8231,0.0635,39.96,78,98,229208
1.8719,0.0733,39.93,78,98,229212
1.8377,0.0684,40.1,78,98,229215
1.8377,0.0587,39.32,78,98,229218
1.8426,0.0635,40.16,78,98,229222
1.8426,0.0635,40.2,78,98,229225
1.8866,0.0733,40.03,78,98,229228
1.8671,0.0342,40.1,78,98,229231
1.8768,0.0635,40.06,78,98,229235
1.8671,0.0635,40.26,78,98,229238
1.8768,0.0587,40.16,78,98,229241
1.9159,0.0684,40,78,98,229245
1.9013,0.0635,40.13,78,98,229249
1.9257,0.0635,40.03,78,98,229252
1.911,0.0587,40.2,78,98,229256
1.9208,0.0635,40.16,78,98,229259
1.9306,0.0635,40.13,78,98,229262
1.911,0.088,40.13,78,98,229265
1.9355,0.0635,40.03,78,98,229269
1.8915,0.0635,40.16,78,98,229272
1.8817,0.0635,40.03,78,98,229275
1.8866,0.0782,40.03,78,98,229279
1.8426,0.0342,40.16,78,98,229282
1.8573,0.0635,39.96,78,98,229285
1.828,0.0684,40.06,78,98,229289
1.8182,0.0538,40.16,78,98,229293
1.8182,0.0831,40.2,78,98,229296
1.7937,0.0684,40.16,78,98,229299
1.828,0.0684,39.93,78,98,229303
1.7937,0.0635,40.1,78,98,229306
1.7742,0.0635,40.2,78,98,229309
1.784,0.0733,40.1,78,98,229313
1.7644,0.0635,40.16,78,98,229316
1.8231,0.0733,39.86,78,98,229319
1.7986,0.0587,40.03,78,98,229323
1.7791,0.0538,40.13,78,98,229326
1.7791,0.0635,40,78,98,229329
1.7742,0.0587,40.23,78,98,229332
1.828,0.0733,40,78,98,229337
1.7937,0.0684,40.13,78,98,229340
1.7986,0.0587,40.06,78,98,229343
1.7937,0.0342,40.16,78,98,229347
1.7889,0.0635,40.16,78,98,229350
1.8182,0.0733,40,78,98,229353
1.7889,0.0635,40.13,78,98,229357
1.7693,0.0635,40.03,78,98,229360
1.7058,0.0635,40.13,78,98,229363
1.6862,0.0684,40.16,78,98,229366
1.7498,0.0782,40.06,78,98,229370
1.8622,0.0635,40.13,78,98,229373
2.1212,0.0684,40.06,78,98,229377
2.39,0.0684,40.16,78,98,229381
2.7322,0.0587,40.16,78,98,229384
3.0792,0.0635,40.06,78,98,229387
3.3382,0.0635,40.26,78,98,229391
3.5582,0.0929,39.96,78,98,229394
3.5191,0.0635,40.13,78,98,229397
3.3431,0.0635,40.23,78,98,229400
3.0499,0.088,40.06,78,98,229404
2.6588,0.0635,40.16,78,98,229407
2.3607,0.0635,39.96,78,98,229410
2.0577,0.0684,40.06,78,98,229414
1.8475,0.0929,40.13,78,98,229417
1.7351,0.0684,40.13,78,98,229421
1.6373,0.0635,40.4,78,98,229425
1.6276,0.088,39.86,78,98,229428
1.564,0.0684,40.1,78,98,229431
1.5298,0.0635,40.16,78,98,229434
1.5298,0.0684,40.23,78,98,229438
1.5103,0.0635,40.16,78,98,229441
1.5543,0.0782,39.96,78,98,229444
1.52,0.0733,39.96,78,98,229448
1.5152,0.0587,40.13,78,98,229451
1.5249,0.0538,40.13,78,98,229454
1.5885,0.0684,40.23,78,98,229459
1.5934,0.0635,40.16,78,98,229463
1.6325,0.0733,39.93,78,98,229467
1.6129,0.0635,40.16,78,98,229470
1.652,0.0635,40,78,98,229473
1.6325,0.0929,40.06,78,98,229476
1.6471,0.0635,40.16,78,98,229480
1.6764,0.0684,40,78,98,229483
1.6716,0.0635,40.13,78,98,229486
1.7107,0.0635,39.96,78,98,229490
1.6911,0.0635,40.16,78,98,229493
1.6911,0.0635,40.16,78,98,229496
1.7302,0.0733,40.06,78,98,229500
1.7155,0.0635,40.16,78,98,229504
1.7644,0.0684,39.93,78,98,229507
1.7302,0.0538,40.1,78,98,229511
1.7351,0.0635,40.16,78,98,229514
1.7498,0.0684,40.16,78,98,229517
1.7546,0.0635,40.16,78,98,229520
1.8182,0.0782,39.89,78,98,229524
1.7937,0.0684,40.1,78,98,229527
1.784,0.0587,40.13,78,98,229530
1.7986,0.0635,40.16,78,98,229534
1.7986,0.0587,40.16,78,98,229537
1.8817,0.0635,40,78,98,229540
1.828,0.0684,40.13,78,98,229544
1.8377,0.0635,40.03,78,98,229548
1.8328,0.0587,40.13,78,98,229551
1.8377,0.0635,40.16,78,98,229554
1.8719,0.0684,39.89,78,98,229558
1.8622,0.0733,40.1,78,98,229561
1.8915,0.0635,40,78,98,229564
1.8768,0.0635,40.2,78,98,229568
1.8866,0.0587,40.16,78,98,229571
1.911,0.0635,40.06,78,98,229574
1.9013,0.0635,40.26,78,98,229578
1.9404,0.0733,40.03,78,98,229581
1.9208,0.0635,40.16,78,98,229584
1.9404,0.0635,40.13,78,98,229587
1.9697,0.0733,40.06,78,98,229592
1.9795,0.0635,40.13,78,98,229595
1.9892,0.0635,39.96,78,98,229598
1.9746,0.0635,40.03,78,98,229602
1.9746,0.0684,40.16,78,98,229605
1.999,0.0733,40.1,78,98,229608
1.9844,0.0635,40.26,78,98,229612
2.0332,0.0684,39.89,78,98,229615
2.0088,0.0684,40.06,78,98,229618
1.999,0.0538,40.16,78,98,229621
2.0186,0.0733,40.1,78,98,229625
2.0039,0.0635,40.16,78,98,229628
2.0626,0.0733,39.96,78,98,229632
2.0186,0.0684,40.1,78,98,229636
2.0088,0.0587,40.16,78,98,229639
2.0186,0.0684,40.13,78,98,229642
2.0039,0.0635,40.13,78,98,229646
2.0479,0.0831,39.96,78,98,229649
2.0283,0.0733,40.1,78,98,229652
1.955,0.0587,40.1,78,98,229655
1.9306,0.0684,40.16,78,98,229659
1.9159,0.0684,40.13,78,98,229662
1.9159,0.0782,39.96,78,98,229665
1.8622,0.0684,40.16,78,98,229669
1.8475,0.0587,40.06,78,98,229672
1.8035,0.0635,40.16,78,98,229676
1.7791,0.0635,40.2,78,98,229679
1.7791,0.0733,40,78,98,229683
1.74,0.0831,40.16,78,98,229686
1.7351,0.0587,40,78,98,229689
1.696,0.0635,40.16,78,98,229693
1.6764,0.0733,40.16,78,98,229696
1.6667,0.0684,40.06,78,98,229699
1.6569,0.0684,40.13,78,98,229703
1.6764,0.0635,40.1,78,98,229706
1.6618,0.0635,40.16,78,98,229709
1.6422,0.0635,40.16,78,98,229713
1.6667,0.0733,40,78,98,229716
1.652,0.0635,40.16,78,98,229720
1.6716,0.0635,39.96,78,98,229723
1.6618,0.0635,39.93,78,98,229727
1.6569,0.0587,40.13,78,98,229730
1.6716,0.0684,40.16,78,98,229733
1.6569,0.0635,40.16,78,98,229737
1.7058,0.0733,39.89,78,98,229740
1.6813,0.0684,40.06,78,98,229743
1.6764,0.0782,40.2,78,98,229747
1.696,0.0684,40.1,78,98,229750
1.6716,0.0587,40.16,78,98,229753
1.7253,0.0733,39.96,78,98,229756
1.696,0.0684,40.03,78,98,229761
1.696,0.0587,40.16,78,98,229764
1.7058,0.0684,40.13,78,98,229767
1.7058,0.0635,40.16,78,98,229771
1.7498,0.0782,40,78,98,229774
1.7253,0.0684,40.1,78,98,229777
1.7302,0.0635,40.1,78,98,229781
1.7253,0.0929,40.16,78,98,229784
1.7351,0.0635,40.16,78,98,229787
1.7644,0.0733,40,78,98,229790
1.74,0.0733,40.13,78,98,229794
1.7644,0.0684,40.03,78,98,229797
1.7351,0.0635,40.13,78,98,229800
1.7449,0.0635,40.06,78,98,229805
1.7693,0.0733,40.03,78,98,229808
1.7595,0.0635,40.16,78,98,229811
1.784,0.0684,40.16,78,98,229815
1.7546,0.0587,40.13,78,98,229818
1.7595,0.0635,40.16,78,98,229821
1.7742,0.0684,40,78,98,229824
1.7595,0.1075,40.16,78,98,229828
1.8035,0.0684,39.96,78,98,229831
1.7498,0.0684,40.26,78,98,229834
1.7498,0.0587,40.16,78,98,229838
1.7644,0.0733,40.1,78,98,229841
1.7498,0.0978,40.16,78,98,229844
1.8084,0.0635,39.93,78,98,229849
1.7742,0.0684,40.16,78,98,229852
1.7595,0.0635,40.13,78,98,229855
1.7644,0.0684,40.13,78,98,229859
1.7595,0.0635,40.16,78,98,229862
1.8084,0.0831,39.89,78,98,229865
1.7791,0.0538,40.1,78,98,229868
1.7644,0.0587,40.13,78,98,229872
1.7644,0.0733,40.13,78,98,229875
1.7595,0.0635,40.2,78,98,229878
1.8035,0.0733,40.03,78,98,229882
1.7791,0.0733,40.06,78,98,229885
1.7693,0.0733,40.06,78,98,229889
1.7595,0.0684,40.16,78,98,229893
1.7546,0.0635,40.16,78,98,229896
1.784,0.0733,40.06,78,98,229899
1.7693,0.0684,40.1,78,98,229902
1.784,0.0684,40.03,78,98,229906
1.7644,0.0635,40.16,78,98,229909
1.7644,0.0635,40.03,78,98,229912
1.7889,0.1026,40.03,78,98,229916
1.7693,0.0684,40.16,78,98,229919
1.8035,0.0733,40.06,78,98,229922
1.7693,0.0635,40.2,78,98,229925
1.7742,0.0635,40.13,78,98,229929
1.7937,0.0733,40.06,78,98,229933
1.7693,0.0635,40.16,78,98,229936
1.7889,0.0635,40.1,78,98,229940
1.7644,0.0635,40.06,78,98,229943
1.7742,0.0587,40.13,78,98,229946
1.7937,0.0684,40.03,78,98,229950
1.7791,0.0635,40.36,78,98,229953
1.8084,0.0684,39.93,78,98,229956
1.7791,0.0635,40.16,78,98,229959
1.7791,0.0635,40.36,78,98,229963
1.7937,0.0978,40.13,78,98,229966
1.7791,0.0635,40.2,78,98,229969
1.8231,0.0733,39.93,78,98,229974
1.7889,0.0782,40.06,78,98,229977
1.8084,0.0635,40.2,78,98,229980
1.7889,0.0684,40.16,78,98,229984
1.784,0.0635,40.4,78,98,229987
1.828,0.0831,39.93,78,98,229990
1.784,0.0684,40.13,78,98,229993
1.7791,0.0587,40.1,78,98,229997
1.784,0.0684,40.13,78,98,230000
1.784,0.0684,40.16,78,98,230003
1.8377,0.0782,40.03,78,98,230007
1.8035,0.0684,40.26,78,98,230010
1.7986,0.0733,40.06,78,98,230013
1.7791,0.0684,40.16,78,98,230018
1.7791,0.0635,40.23,78,98,230021
1.8035,0.0929,40.1,78,98,230024
1.7986,0.0684,40.23,78,98,230027
1.8035,0.0635,40.03,78,98,230031
1.7791,0.0684,40.16,78,98,230034
1.7937,0.0587,40.16,78,98,230037
1.8133,0.0733,40.03,78,98,230041
1.7937,0.0587,40.13,78,98,230044
1.828,0.0342,40.03,78,98,230047
1.7889,0.0587,40.1,78,98,230051
1.784,0.0635,40.2,78,98,230054
1.7986,0.0684,40.06,78,98,230057
1.7889,0.0635,40.13,78,98,230062
1.828,0.0684,39.96,78,98,230065
1.8719,0.0733,40,78,98,230070
1.8524,0.0635,40.03,78,98,230073
1.8671,0.0587,40.13,78,98,230076
1.8817,0.0684,40.26,78,98,230079
1.9062,0.0587,40.16,78,98,230083
1.9306,0.0733,40,78,98,230086
1.8964,0.0684,39.35,78,98,230089
1.8866,0.0635,40.06,78,98,230093
1.8671,0.0635,40.16,78,98,230096
1.8573,0.0635,40.1,78,98,230099
1.8719,0.0929,39.96,78,98,230104
1.8182,0.0684,40.13,78,98,230107
1.8133,0.0684,40,78,98,230110
1.7889,0.0684,39.96,78,98,230114
1.7742,0.0587,40.16,78,98,230117
1.7937,0.0733,40.13,78,98,230120
1.7742,0.0684,40.16,78,98,230123
1.7889,0.0733,40.06,78,98,230127
1.7351,0.0635,40.16,78,98,230130
1.74,0.0635,40.13,78,98,230133
1.7498,0.0587,40.03,78,98,230137
1.7302,0.0538,40.13,78,98,230140
1.7546,0.0635,40,78,98,230144
1.7302,0.0587,40.16,78,98,230148
1.7302,0.0538,40.16,78,98,230151
1.7449,0.0733,40.1,78,98,230154
1.7302,0.0733,40.16,78,98,230157
1.7742,0.0538,39.93,78,98,230161
1.7449,0.0684,40.1,78,98,230164
1.7351,0.0635,40.26,78,98,230167
1.7693,0.0635,40.13,78,98,230171
1.7449,0.0635,40.16,78,98,230174
1.7937,0.0733,39.86,78,98,230177
1.7498,0.0684,40.03,78,98,230181
1.7155,0.0587,40.16,78,98,230184
1.6813,0.0684,40.13,78,98,230188
1.6471,0.0684,40.16,78,98,230191
1.7204,0.0831,40,78,98,230195
1.7986,0.0733,40.1,78,98,230198
1.9941,0.0635,40.06,78,98,230201
2.2727,0.0635,40.16,78,98,230205
2.5953,0.0635,40.2,78,98,230208
2.9765,0.0733,40.03,78,98,230211
3.2209,0.0684,40.13,78,98,230215
3.4604,0.0587,40.06,78,98,230218
3.4604,0.0635,40.16,78,98,230221
3.3187,0.0635,40.26,78,98,230224
3.0938,0.0635,40,78,98,230228
2.7077,0.0684,40.16,78,98,230232
2.3998,0.0733,40.03,78,98,230235
2.0821,0.0635,40.16,78,98,230239
1.8622,0.0978,40.16,78,98,230242
1.7351,0.0733,40.06,78,98,230245
1.6276,0.0684,40.23,78,98,230249
1.5934,0.0978,40,78,98,230252
1.5396,0.0587,40.1,78,98,230255
1.5152,0.0635,40.36,78,98,230258
1.5152,0.0684,39.96,78,98,230262
1.4858,0.0635,40.16,78,98,230265
1.5152,0.0684,39.16,78,98,230268
1.4956,0.0587,40.16,78,98,230273
1.5054,0.0635,40.2,78,98,230276
1.52,0.0684,40.13,78,98,230279
1.5347,0.0635,40.16,78,98,230283
1.5591,0.0733,39.96,78,98,230286
1.5396,0.0684,40.16,78,98,230289
1.5494,0.0684,40.23,78,98,230292
1.5591,0.0684,40.33,78,98,230296
1.5591,0.1124,40.16,78,98,230299
1.6276,0.0831,39.96,78,98,230302
1.5885,0.0733,40.13,78,98,230306
1.5934,0.0587,40.1,78,98,230309
1.608,0.0635,40.16,78,98,230312
1.6129,0.0635,40.13,78,98,230317
1.6569,0.088,40,78,98,230320
1.652,0.0684,40.1,78,98,230323
1.6569,0.0635,40.06,78,98,230327
1.652,0.0684,40.36,78,98,230330
1.6667,0.0635,40.16,78,98,230333
1.6911,0.0733,40.13,78,98,230336
1.6764,0.0635,40.13,78,98,230340
1.7058,0.0635,40.03,78,98,230343
1.6764,0.0635,40.23,78,98,230346
1.7009,0.0831,40.16,78,98,230350
1.7742,0.0635,40.1,78,98,230353
1.7204,0.0635,40.26,78,98,230356
1.7449,0.0635,40.03,78,98,230361
1.7302,0.0684,40.1,78,98,230364
1.74,0.0635,40.16,78,98,230367
1.7742,0.1222,40.03,78,98,230370
1.7791,0.0684,40.16,78,98,230374
1.8133,0.0684,39.96,78,98,230377
1.7889,0.0929,40.1,78,98,230380
1.8035,0.0538,40.16,78,98,230384
1.8084,0.0733,40.1,78,98,230387
1.7986,0.0635,40.26,78,98,230390
1.8573,0.0684,39.89,78,98,230394
1.828,0.0635,40.06,78,98,230397
1.8328,0.0635,40.13,78,98,230401
1.8671,0.0635,40.13,78,98,230405
1.8524,0.0635,40.2,78,98,230408
1.9159,0.088,39.96,78,98,230411
1.9159,0.0538,40.1,78,98,230414
1.8817,0.0587,40.13,78,98,230418
1.8866,0.0587,40.13,78,98,230421
1.8866,0.0635,40.16,78,98,230424
1.9306,0.0733,39.96,78,98,230428
1.911,0.0684,40.06,78,98,230431
1.9306,0.0635,40.03,78,98,230434
1.9306,0.0684,40.16,78,98,230438
1.9404,0.0635,40.16,78,98,230441
1.9844,0.0733,40,78,98,230445
1.9697,0.0929,40.1,78,98,230448
1.999,0.0782,40.03,78,98,230452
1.9746,0.0684,40.16,78,98,230455
1.9892,0.0587,40.23,78,98,230458
2.0039,0.0978,40.1,78,98,230462
1.999,0.0733,40.23,78,98,230465
2.0332,0.0733,40.06,78,98,230468
2.0088,0.0684,40.16,78,98,230471
2.0088,0.0635,40.13,78,98,230475
2.0283,0.0733,40.1,78,98,230478
1.9941,0.0733,40.23,78,98,230481
2.0137,0.0538,40,78,98,230486
1.9746,0.0635,40.1,78,98,230489
1.9501,0.0635,40.16,78,98,230492
1.9453,0.0733,40.06,78,98,230496
1.9208,0.0538,40.16,78,98,230499
1.9062,0.0684,39.96,78,98,230502
1.8524,0.0733,40.13,78,98,230505
1.8084,0.044,40.16,78,98,230509
1.8035,0.0733,40.1,78,98,230512
1.7595,0.0635,40.16,78,98,230515
1.7742,0.0733,39.8,78,98,230519
1.7107,0.0635,40.06,78,98,230522
1.696,0.0342,40.16,78,98,230525
1.6716,0.0684,40.13,78,98,230530
1.652,0.0684,40.16,78,98,230533
1.6862,0.0733,39.96,78,98,230536
1.6373,0.0733,40.36,78,98,230539
1.608,0.0929,40.1,78,98,230543
1.5982,0.0684,40.16,78,98,230546
1.5934,0.0635,40.03,78,98,230549
1.6276,0.0684,39.96,78,98,230553
1.5982,0.0684,40.13,78,98,230556
1.6129,0.0635,40.2,78,98,230559
1.5982,0.1026,40.16,78,98,230563
1.6129,0.0635,40.16,78,98,230566
1.6325,0.0733,40,78,98,230569
1.6227,0.0684,40.1,78,98,230573
1.6422,0.0831,40.03,78,98,230577
1.6227,0.0684,40.16,78,98,230580
1.6276,0.0635,40.06,78,98,230583
1.6373,0.0684,40.13,78,98,230587
1.6618,0.0684,40.16,78,98,230590
1.6716,0.0635,40,78,98,230593
1.652,0.0587,40.16,78,98,230597
1.6618,0.0684,40.16,78,98,230600
1.6862,0.0733,40.03,78,98,230603
1.6716,0.0684,40.16,78,98,230606
1.7107,0.0684,39.93,78,98,230610
1.7009,0.0684,40.1,78,98,230614
1.696,0.0635,40.2,78,98,230617
1.7155,0.0733,40.13,78,98,230621
1.7107,0.0684,40.16,78,98,230624
1.7546,0.0733,39.89,78,98,230627
1.7302,0.0684,40.06,78,98,230631
1.7253,0.0684,40.2,78,98,230634
1.74,0.0684,40.1,78,98,230637
1.7302,0.0635,40.16,78,98,230640
1.7791,0.0733,39.16,78,98,230644
1.7791,0.0538,40.03,78,98,230647
1.7449,0.0587,40.13,78,98,230650
1.7546,0.0684,40.13,78,98,230654
1.7449,0.0635,40.16,78,98,230658
1.7937,0.0733,39.96,78,98,230661
1.7644,0.0684,40.13,78,98,230665
1.7595,0.0635,40.06,78,98,230668
1.7546,0.0684,40.13,78,98,230671
1.7595,0.0635,40.16,78,98,230674
1.7986,0.0782,40,78,98,230678
1.784,0.0684,40.06,78,98,230683
1.7644,0.0587,40.16,78,98,230686
1.7791,0.0684,40,78,98,230689
1.7595,0.0635,40,78,98,230692
1.7595,0.0587,40.16,78,98,230696
1.7889,0.0782,40.06,78,98,230700
1.7742,0.0635,40.16,78,98,230703
1.8084,0.0684,39.93,78,98,230707
1.7693,0.0538,40.1,78,98,230710
1.7644,0.0635,40.16,78,98,230713
1.7791,0.0733,40,78,98,230717
1.7595,0.0587,40.16,78,98,230720
1.8182,0.0733,39.89,78,98,230723
1.7791,0.0684,40.06,78,98,230726
1.7644,0.0538,40.2,78,98,230730
1.7644,0.0684,40.13,78,98,230733
1.7595,0.0684,40.16,78,98,230736
1.8182,0.1124,40.1,78,98,230740
1.7937,0.0733,40.1,78,98,230744
1.7791,0.0635,40.1,78,98,230747
1.7742,0.0684,40.13,78,98,230751
1.7693,0.0684,40.16,78,98,230754
1.8377,0.0538,40,78,98,230757
1.7889,0.0733,40.1,78,98,230760
1.7937,0.0635,40.06,78,98,230764
1.7742,0.0684,40.13,78,98,230767
1.7791,0.0635,40.16,78,98,230770
1.7937,0.0733,40.06,78,98,230774
1.784,0.0929,40.13,78,98,230777
1.8084,0.0733,40.03,78,98,230780
1.784,0.0635,40.16,78,98,230785
1.784,0.0635,40.16,78,98,230788
1.8133,0.0782,40.03,78,98,230791
1.7937,0.0635,40.16,78,98,230794
1.828,0.0635,40.06,78,98,230798
1.8133,0.0782,40.06,78,98,230801
1.828,0.0635,40.16,78,98,230804
1.8573,0.0733,40.13,78,98,230808
1.8475,0.0684,40.16,78,98,230811
1.8817,0.0587,39.93,78,98,230814
1.8719,0.0684,40.1,78,98,230818
1.8719,0.0635,40.2,78,98,230821
1.9062,0.0684,40.1,78,98,230824
1.8817,0.0684,40.16,78,98,230828
1.9355,0.0733,39.93,78,98,230832
1.8964,0.0635,40.1,78,98,230835
1.8964,0.0635,40.23,78,98,230838
1.9062,0.0684,40.13,78,98,230842
1.8866,0.0733,40.13,78,98,230845
1.9306,0.0831,39.93,78,98,230848
1.8719,0.0684,40.13,78,98,230852
1.8377,0.0635,40.16,78,98,230855
1.8231,0.0684,40.13,78,98,230858
1.8035,0.0635,40.1,78,98,230861
1.8377,0.088,40,78,98,230865
1.7986,0.0684,40.13,78,98,230868
1.7937,0.0635,40.06,78,98,230872
1.7742,0.0684,40.26,78,98,230876
1.7693,0.0635,40.16,78,98,230879
1.7986,0.0782,40,78,98,230882
1.7742,0.0684,40.13,78,98,230886
1.7889,0.0684,40.1,78,98,230889
1.7595,0.0831,40.16,78,98,230892
1.7595,0.0635,40.2,78,98,230895
1.7742,0.0635,40.1,78,98,230899
1.7693,0.0733,40.16,78,98,230902
1.7937,0.0684,40.03,78,98,230905
1.7644,0.0684,40.26,78,98,230909
1.7644,0.0635,40.13,78,98,230913
1.8231,0.0538,40.06,78,98,230916
1.7742,0.0684,40.16,78,98,230920
1.8084,0.0684,40,78,98,230923
1.7937,0.0635,40.06,78,98,230926
1.784,0.0684,40.13,78,98,230929
1.7889,0.0684,40.2,78,98,230933
1.74,0.0684,40.16,78,98,230936
1.74,0.1075,39.93,78,98,230939
1.7009,0.0684,40.1,78,98,230943
1.7253,0.0635,40.16,78,98,230946
1.8671,0.0733,40.1,78,98,230949
2.0919,0.0684,40.16,78,98,230953
2.4242,0.0782,39.89,78,98,230957
2.7175,0.0684,40.1,78,98,230960
3.0156,0.0587,40.23,78,98,230963
3.2893,0.0684,40.16,78,98,230967
3.4262,0.0635,40.26,78,98,230970
3.5093,0.1124,40.1,78,98,230973
3.2796,0.0733,40.1,78,98,230977
2.9668,0.0342,40.1,78,98,230980
2.6295,0.0733,40.16,78,98,230983
2.3216,0.0587,40.23,78,98,230987
2.1017,0.0733,40,78,98,230990
1.8719,0.0635,40.13,78,98,230993
1.7498,0.0538,40.03,78,98,230996
1.6618,0.0684,40.16,78,98,231001
1.6178,0.0635,40.16,78,98,231004
1.6471,0.0782,40.03,78,98,231007
1.5738,0.0684,40.13,78,98,231011
1.5787,0.0733,40.03,78,98,231014
1.5591,0.0684,40.4,78,98,231017
1.564,0.0587,40.2,78,98,231021
1.5934,0.0684,40.06,78,98,231024
1.5689,0.0684,40.2,78,98,231027
1.6031,0.0635,39.41,78,98,231030
1.5836,0.0635,40.16,78,98,231034
1.5885,0.0635,40.16,78,98,231037
1.6178,0.0733,40.23,78,98,231041
1.6129,0.0587,40.16,78,98,231045
1.6422,0.0684,40,78,98,231048
1.6325,0.0929,40.06,78,98,231051
1.6325,0.0684,40.16,78,98,231055
1.6569,0.0733,40.16,78,98,231058
1.6618,0.0684,40.06,78,98,231061
1.7107,0.0782,39.93,78,98,231064
1.6911,0.0684,40.1,78,98,231068
1.6911,0.0635,40.2,78,98,231071
1.7058,0.0733,40.23,78,98,231074
1.7107,0.0635,40.13,78,98,231078
1.7986,0.0831,39.93,78,98,231081
1.7498,0.0684,40.1,78,98,231085
1.74,0.0587,40.16,78,98,231089
1.7498,0.0635,40.16,78,98,231092
1.7498,0.0635,40.23,78,98,231095
1.7937,0.0733,40.03,78,98,231098
1.8035,0.0684,40.13,78,98,231102
1.7791,0.0538,40.06,78,98,231105
1.7742,0.0684,40.13,78,98,231108
1.7791,0.0782,40.13,78,98,231112
1.8231,0.0782,40,78,98,231115
1.8084,0.0684,40.13,78,98,231118
1.8377,0.0782,40.03,78,98,231122
1.8328,0.0684,40.16,78,98,231126
1.8328,0.0635,40.16,78,98,231129
1.8671,0.0733,40.06,78,98,231132
1.8475,0.0733,40.13,78,98,231136
1.8768,0.0684,40.03,78,98,231139
1.8622,0.0587,40.06,78,98,231142
1.9013,0.0684,40.16,78,98,231146
1.8964,0.0684,40.03,78,98,231149
1.8817,0.0684,40.16,78,98,231152
1.9208,0.0684,39.22,78,98,231156
1.9062,0.0684,40.16,78,98,231159
1.911,0.0684,40.16,78,98,231162
1.9355,0.0733,40.23,78,98,231165
1.9453,0.0635,40.16,78,98,231170
1.9795,0.0733,39.96,78,98,231173
1.9599,0.0733,40.1,78,98,231176
1.9501,0.0684,40.23,78,98,231180
1.9697,0.0684,40.13,78,98,231183
1.9697,0.0635,40.23,78,98,231186
2.0283,0.0684,39.89,78,98,231190
1.9892,0.0684,40.06,78,98,231193
1.9844,0.0635,40.16,78,98,231196
2.0039,0.0684,40.16,78,98,231200
2.0088,0.0684,40.16,78,98,231203
2.0772,0.0782,39.96,78,98,231206
2.043,0.0733,40.1,78,98,231209
2.0332,0.0635,40.13,78,98,231214
2.0283,0.0684,40.13,78,98,231217
2.0283,0.0635,40.16,78,98,231220
2.087,0.0782,40.06,78,98,231224
2.0381,0.0635,40.13,78,98,231227
2.0283,0.0635,40.06,78,98,231230
1.999,0.0684,40.2,78,98,231233
1.9844,0.0684,40.33,78,98,231237
2.0039,0.0831,40,78,98,231240
1.955,0.0684,40.16,78,98,231243
1.9501,0.0684,40.03,78,98,231247
1.8915,0.0684,40.16,78,98,231250
1.8671,0.0587,40.16,78,98,231254
1.8719,0.0733,40.13,78,98,231258
1.8231,0.0684,40.16,78,98,231261
1.8133,0.0684,40.03,78,98,231264
1.7693,0.0635,40.13,78,98,231267
1.74,0.0635,40.13,78,98,231271
1.7742,0.0684,40.03,78,98,231274
1.7009,0.0538,40.16,78,98,231277
1.7204,0.0684,40,78,98,231281
1.6813,0.0684,40.26,78,98,231284
1.6716,0.088,40.16,78,98,231287
1.6716,0.0782,40.1,78,98,231290
1.7009,0.0684,40.16,78,98,231296
1.6862,0.0538,40.16,78,98,231299
1.7253,0.0831,40,78,98,231303
1.6911,0.0684,40.13,78,98,231306
1.7107,0.0635,40.1,78,98,231309
1.6911,0.0684,40.16,78,98,231313
1.6911,0.0635,40.16,78,98,231316
1.7204,0.0782,40.03,78,98,231319
1.7058,0.0733,40.1,78,98,231323
1.7253,0.0684,40.06,78,98,231326
1.7155,0.0684,40.16,78,98,231329
1.7204,0.0635,40.13,78,98,231333
1.7449,0.0733,40.2,78,98,231336
1.7351,0.0684,40.23,78,98,231340
1.7595,0.0733,40.03,78,98,231343
1.74,0.0684,40.16,78,98,231347
1.7498,0.0635,40.26,78,98,231350
1.784,0.0831,40.03,78,98,231353
1.7644,0.0684,40.16,78,98,231357
1.7889,0.0684,39.96,78,98,231360
1.7742,0.0733,40.06,78,98,231363
1.7742,0.0684,40.16,78,98,231367
1.7937,0.0733,40.16,78,98,231370
1.7889,0.0684,40.16,78,98,231373
1.8182,0.0733,39.93,78,98,231376
1.7937,0.0733,40.13,78,98,231380
1.784,0.0635,40.13,78,98,231384
1.7986,0.0635,40.1,78,98,231387
1.7889,0.0684,40.16,78,98,231391
1.8328,0.0733,40,78,98,231394
1.7889,0.0635,40.1,78,98,231397
1.7791,0.0538,40.16,78,98,231401
1.7986,0.0733,40.16,78,98,231404
1.7986,0.0684,40.16,78,98,231407
1.8622,0.0831,39.96,78,98,231410
1.8182,0.0733,40.1,78,98,231414
1.8084,0.0635,40.1,78,98,231417
1.8084,0.0635,40.16,78,98,231420
1.8035,0.0684,40.16,78,98,231425
1.8524,0.0733,40.33,78,98,231428
1.828,0.0684,40.16,78,98,231431
1.828,0.0342,40.06,78,98,231435
1.8084,0.0684,40.23,78,98,231438
1.8035,0.0684,40.2,78,98,231441
1.8377,0.0635,40,78,98,231444
1.8133,0.0684,40.13,78,98,231448
1.8328,0.0684,40.1,78,98,231451
1.8084,0.0782,40.16,78,98,231454
1.8035,0.0635,40.16,78,98,231458
1.8133,0.0684,40.1,78,98,231461
1.8133,0.0684,40.2,78,98,231464
1.8426,0.0929,40.03,78,98,231469
1.8133,0.0684,40.2,78,98,231472
1.8231,0.0635,40.16,78,98,231475
1.8426,0.0733,40.03,78,98,231478
1.8182,0.0684,40.2,78,98,231482
1.8475,0.0684,39.96,78,98,231485
1.8328,0.0684,40,78,98,231488
1.8231,0.0635,40.2,78,98,231492
1.8426,0.0538,40.1,78,98,231495
1.8133,0.0684,40.16,78,98,231498
1.8573,0.0733,39.93,78,98,231502
1.8328,0.0684,40.1,78,98,231505
1.8231,0.0635,40.16,78,98,231508
1.8377,0.0733,40.1,78,98,231512
1.8231,0.0587,40.16,78,98,231516
1.8719,0.0782,39.89,78,98,231519
1.828,0.0684,40.03,78,98,231522
1.8231,0.0587,40.16,78,98,231526
1.828,0.0684,40.16,78,98,231529
1.8231,0.0684,40.2,78,98,231532
1.8817,0.0782,40,78,98,231536
1.8377,0.0733,40.1,78,98,231539
1.8231,0.0635,40.06,78,98,231542
1.8231,0.0684,40.13,78,98,231545
1.828,0.0733,40.16,78,98,231549
1.8622,0.0733,40,78,98,231553
1.8377,0.0684,40.1,78,98,231556
1.8475,0.0635,40.1,78,98,231560
1.8231,0.0635,40.23,78,98,231563
1.8231,0.0684,40.16,78,98,231566
1.8573,0.0733,40.06,78,98,231570
1.8328,0.0684,40.16,78,98,231573
1.8573,0.0782,40.06,78,98,231576
1.8231,0.0684,40.2,78,98,231579
1.8231,0.0635,40.13,78,98,231583
1.8377,0.0635,40.06,78,98,231586
1.8231,0.0684,40.16,78,98,231589
1.8524,0.0635,40.1,78,98,231593
1.8231,0.0684,40.13,78,98,231597
1.8328,0.0635,40.16,78,98,231600
1.8524,0.0733,40.06,78,98,231604
1.8426,0.0635,40.16,78,98,231607
1.8915,0.0684,39.96,78,98,231610
1.8768,0.0733,39.93,78,98,231613
1.8671,0.0733,40.16,78,98,231617
1.8817,0.0733,40.13,78,98,231620
1.8719,0.0684,40.16,78,98,231623
1.9355,0.0831,39.86,78,98,231627
1.911,0.0684,40.13,78,98,231630
1.911,0.0587,40.2,78,98,231633
1.9257,0.0684,40.1,78,98,231638
1.9159,0.0538,40.16,78,98,231641
1.9892,0.0733,39.89,78,98,231644
1.9501,0.0733,40.06,78,98,231647
1.9404,0.0635,40.1,78,98,231651
1.9306,0.0684,40.26,78,98,231654
1.9159,0.0684,40.16,78,98,231657
1.9355,0.0782,40.03,78,98,231661
1.8964,0.0684,40.2,78,98,231664
1.8915,0.0684,40.06,78,98,231667
1.8622,0.0684,40.16,78,98,231671
1.8475,0.0684,40.26,78,98,231674
1.8671,0.0929,40,78,98,231677
1.8377,0.0684,40.16,78,98,231682
1.8524,0.0733,40.1,78,98,231685
1.8182,0.0635,40.13,78,98,231688
1.8133,0.0684,40.16,78,98,231691
1.828,0.0733,39.93,78,98,231695
1.7986,0.0684,40.16,78,98,231698
1.8133,0.0684,40,78,98,231701
1.7889,0.0635,40.1,78,98,231705
1.7889,0.0684,40.2,78,98,231708
1.8084,0.0684,40,78,98,231711
1.7889,0.0684,40.2,78,98,231715
1.8231,0.088,39.96,78,98,231718
1.7937,0.0684,40.16,78,98,231721
1.8035,0.0635,40.13,78,98,231725
1.8182,0.0733,40.1,78,98,231729
1.8084,0.0684,40.16,78,98,231732
1.8524,0.0733,40.1,78,98,231735
1.8182,0.0733,40.06,78,98,231739
1.7986,0.0733,40.2,78,98,231742
1.784,0.0733,40.16,78,98,231745
1.7351,0.0684,40.16,78,98,231748
1.7546,0.0831,39.89,78,98,231752
1.7204,0.0684,40.1,78,98,231755
1.7986,0.0342,40.1,78,98,231758
1.9892,0.0733,40.23,78,98,231762
2.2532,0.0684,40.13,78,98,231766
2.6686,0.0831,40.03,78,98,231769
2.9619,0.0782,40.1,78,98,231773
3.26,0.0635,40.2,78,98,231776
3.4702,0.0684,40.1,78,98,231779
3.5582,0.0587,40.16,78,98,231782
3.5142,0.0782,40,78,98,231786
3.2063,0.0684,40.16,78,98,231789
2.8739,0.0684,40.03,78,98,231792
2.4878,0.0684,40.16,78,98,231796
2.175,0.0684,40.16,78,98,231799
1.9746,0.0733,40.06,78,98,231802
1.7889,0.0635,40.23,78,98,231806
1.7204,0.0782,40.06,78,98,231810
1.6325,0.0635,40.16,78,98,231813
1.5836,0.0684,40.13,78,98,231816
1.5689,0.0733,40.03,78,98,231820
1.5396,0.0684,40.16,78,98,231823
1.5494,0.0684,40.03,78,98,231826
1.5298,0.0635,40.06,78,98,231830
1.5347,0.0684,40.13,78,98,231833
1.5543,0.0733,40.03,78,98,231836
1.5396,0.0684,40.16,78,98,231840
1.5738,0.0684,40.03,78,98,231843
1.5543,0.0684,40.13,78,98,231846
1.5689,0.0635,40.16,78,98,231849
1.5885,0.0733,40.16,78,98,231854
1.5836,0.0538,40.16,78,98,231857
1.6373,0.0733,39.89,78,98,231860
1.6178,0.0733,40.1,78,98,231864
1.6276,0.0684,40.16,78,98,231867
1.6325,0.0684,40.06,78,98,231870
1.6373,0.0782,40.2,78,98,231874
1.696,0.088,39.96,78,98,231877
1.6667,0.0733,40.13,78,98,231880
1.6716,0.0635,40.1,78,98,231883
1.6862,0.0929,40.23,78,98,231887
1.6911,0.0342,40.16,78,98,231890
1.74,0.0733,39.54,78,98,231894
1.7253,0.0782,40.13,78,98,231898
1.7302,0.0684,40.06,78,98,231901
1.7204,0.0684,40.2,78,98,231904
1.7693,0.0684,40.16,78,98,231909
1.7791,0.0733,40.16,78,98,231912
1.8084,0.0733,40.06,78,98,231916
1.8084,0.0684,40.16,78,98,231919
1.8377,0.0684,39.96,78,98,231922
1.8231,0.0684,40.1,78,98,231925
1.8231,0.0684,39.73,78,98,231929
1.8475,0.0782,40.1,78,98,231932
1.8426,0.0684,40.16,78,98,231936
1.8915,0.0733,39.96,78,98,231940
1.8719,0.0782,40.1,78,98,231943
1.8719,0.0684,40.2,78,98,231946
1.8915,0.0733,40.1,78,98,231950
1.8866,0.0684,40.16,78,98,231953
1.9453,0.0733,39.22,78,98,231956
1.9159,0.0684,40.06,78,98,231959
1.9159,0.0587,40.16,78,98,231963
1.9208,0.0684,40.1,78,98,231966
1.9257,0.0684,40.16,78,98,231969
1.999,0.0733,39.96,78,98,231973
1.9648,0.0733,40.23,78,98,231976
1.9746,0.0635,40.1,78,98,231980
1.9746,0.0684,40.16,78,98,231984
1.9844,0.0684,40.16,78,98,231987
2.0283,0.088,40.1,78,98,231990
2.0381,0.0635,40.13,78,98,231993
2.0381,0.0684,40.06,78,98,231997
2.0283,0.0684,40.2,78,98,232000
2.0283,0.0684,40.2,78,98,232003
2.0674,0.0929,40,78,98,232007
2.043,0.0587,40.13,78,98,232010
2.0577,0.0782,40,78,98,232013
2.0626,0.0538,40.23,78,98,232016
2.0332,0.0635,39.73,78,98,232020
2.0381,0.0684,40.1,78,98,232024
2.0186,0.088,40.16,78,98,232027
2.043,0.0684,40.03,78,98,232031
1.999,0.0684,40.16,78,98,232034
1.9892,0.0684,39.44,78,98,232037
1.999,0.0733,40.06,78,98,232041
1.9501,0.0684,40.16,78,98,232044
1.955,0.0684,40,78,98,232047
1.9062,0.0635,40.1,78,98,232050
1.8719,0.0684,40.2,78,98,232054
1.8622,0.0782,40.1,78,98,232057
1.8182,0.0684,40.16,78,98,232060
1.828,0.0733,39.93,78,98,232065
1.7937,0.0782,40.06,78,98,232068
1.7498,0.0635,40.16,78,98,232071
1.7449,0.0733,40.1,78,98,232075
1.7107,0.0684,40.23,78,98,232078
1.74,0.0782,39.86,78,98,232081
1.6862,0.0684,40,78,98,232084
1.6667,0.0635,40.26,78,98,232088
1.6618,0.0733,40.16,78,98,232091
1.6569,0.0684,40.23,78,98,232094
1.7009,0.088,39.96,78,98,232098
1.6716,0.0831,40.1,78,98,232101
1.6471,0.0342,40.1,78,98,232104
1.6471,0.0684,40.2,78,98,232109
1.652,0.0684,40.13,78,98,232112
1.7302,0.0782,40,78,98,232115
1.6813,0.0733,40.2,78,98,232118
1.696,0.0684,40.06,78,98,232122
1.6862,0.0978,40.13,78,98,232125
1.6862,0.0635,40.16,78,98,232128
1.696,0.0733,40.03,78,98,232132
1.7009,0.0733,40.2,78,98,232135
1.7253,0.0684,40.13,78,98,232138
1.7058,0.0684,40.16,78,98,232141
1.7058,0.0684,40.16,78,98,232145
1.7253,0.0684,39.54,78,98,232148
1.7253,0.0635,40.16,78,98,232152
1.7546,0.0684,40.03,78,98,232156
1.7351,0.0684,40.16,78,98,232159
1.7351,0.0684,40.16,78,98,232162
1.7595,0.0733,40.06,78,98,232166
1.7449,0.0684,40.13,78,98,232169
1.784,0.0538,39.93,78,98,232172
1.7742,0.0733,40.06,78,98,232176
1.7693,0.0684,40.16,78,98,232179
1.7889,0.0733,40.1,78,98,232182
1.784,0.0684,40.16,78,98,232185
1.828,0.0782,39.93,78,98,232189
1.7937,0.0978,40.1,78,98,232193
1.784,0.0733,40.2,78,98,232196
1.8182,0.0733,40.1,78,98,232200
1.784,0.0684,40.16,78,98,232203
1.8377,0.0733,39.89,78,98,232206
1.8133,0.0684,40.06,78,98,232210
1.7986,0.0635,40.13,78,98,232213
1.8035,0.0684,40.33,78,98,232216
1.7986,0.0635,40.13,78,98,232219
1.8328,0.0733,40,78,98,232223
1.8035,0.0733,40.13,78,98,232226
1.7986,0.0635,40.06,78,98,232229
1.8231,0.0684,40.16,78,98,232233
1.7986,0.0684,40.16,78,98,232237
1.8328,0.0733,40,78,98,232240
1.7986,0.0733,40.13,78,98,232244
1.8231,0.0684,40.03,78,98,232247
1.8035,0.0684,40.16,78,98,232250
1.8035,0.0684,40.16,78,98,232253
1.8671,0.0782,40.03,78,98,232257
1.8035,0.0684,40.13,78,98,232260
1.828,0.0733,40.03,78,98,232263
1.7889,0.0635,40.13,78,98,232267
1.7986,0.0733,40.13,78,98,232270
1.8035,0.0733,40.03,78,98,232273
1.7937,0.0684,40.13,78,98,232278
1.8231,0.0733,40.1,78,98,232281
1.7986,0.0684,40.16,78,98,232284
1.7937,0.0684,40.13,78,98,232287
1.8133,0.0782,40.1,78,98,232291
1.7986,0.0684,40.16,78,98,232294
1.8328,0.0733,39.93,78,98,232297
1.8133,0.0733,40.06,78,98,232301
1.828,0.0684,40.23,78,98,232304
1.8035,0.0733,40.26,78,98,232307
1.7937,0.0684,40.2,78,98,232311
1.8426,0.0782,39.89,78,98,232314
1.8084,0.0684,40.06,78,98,232317
1.8035,0.0635,40.16,78,98,232321
1.8084,0.0733,40.13,78,98,232325
1.7986,0.0684,40.13,78,98,232328
1.8475,0.0733,39.96,78,98,232331
1.8231,0.0733,40.06,78,98,232335
1.8182,0.0587,39.96,78,98,232338
1.828,0.0733,40.16,78,98,232341
1.8035,0.0684,40.2,78,98,232345
1.8377,0.0733,40.06,78,98,232348
1.8084,0.0733,40.16,78,98,232351
1.8426,0.0733,40.06,78,98,232354
1.8084,0.0684,40.23,78,98,232358
1.8084,0.0733,40.13,78,98,232361
1.8573,0.0782,40,78,98,232365
1.8084,0.0684,40.26,78,98,232369
1.828,0.0733,40.03,78,98,232372
1.8084,0.0684,40.2,78,98,232375
1.8231,0.0635,40.16,78,98,232379
1.8475,0.0733,40.06,78,98,232382
1.828,0.0684,40.13,78,98,232385
1.8622,0.0684,40.03,78,98,232388
1.8426,0.0684,40.23,78,98,232392
1.8524,0.0635,40.2,78,98,232395
1.8719,0.0684,40,78,98,232398
1.8622,0.0684,40.2,78,98,232402
1.9013,0.0782,40.03,78,98,232406
1.8866,0.0684,40.2,78,98,232409
1.8964,0.0684,40.23,78,98,232412
1.9257,0.0733,40.06,78,98,232416
1.911,0.0538,40.16,78,98,232419
1.9501,0.0733,39.96,78,98,232422
1.9257,0.0733,40.36,78,98,232426
1.9013,0.0733,40.16,78,98,232429
1.9013,0.0733,40.13,78,98,232432
1.8866,0.0684,40.26,78,98,232436
1.9257,0.0782,39.89,78,98,232439
1.8671,0.0684,40.1,78,98,232442
1.8377,0.0635,40.16,78,98,232445
1.8231,0.0733,40.16,78,98,232450
1.8182,0.0635,40.16,78,98,232453
1.8475,0.088,40.03,78,98,232456
1.8084,0.0733,40.06,78,98,232460
1.784,0.0782,40.06,78,98,232463
1.7644,0.0831,40.23,78,98,232466
1.7595,0.0684,40.23,78,98,232470
1.7889,0.0733,40.06,78,98,232473
1.7693,0.0733,40.23,78,98,232476
1.7791,0.0635,40.06,78,98,232479
1.7595,0.0684,40.23,78,98,232483
1.7546,0.0635,40.16,78,98,232486
1.7889,0.0782,40.03,78,98,232489
1.7595,0.0684,39.6,78,98,232494
1.7889,0.0733,40,78,98,232497
1.7644,0.0587,40.13,78,98,232500
1.7986,0.0684,40.16,78,98,232504
1.7937,0.0733,40.06,78,98,232507
1.784,0.0684,40.13,78,98,232510
1.8133,0.0733,40.03,78,98,232513
1.7889,0.0782,39.93,78,98,232517
1.7107,0.0635,40.1,78,98,232521
1.8426,0.0635,40.1,78,98,232525
2.0772,0.0733,40.13,78,98,232528
2.3754,0.0684,40.16,78,98,232531
2.781,0.0782,39.93,78,98,232536
3.0596,0.0733,40.06,78,98,232539
3.3236,0.0684,40.13,78,98,232542
3.5239,0.0684,40.16,78,98,232545
3.5386,0.0684,40.33,78,98,232549
3.4457,0.0831,40.03,78,98,232552
3.0694,0.0733,40.13,78,98,232555
2.7028,0.0635,40.1,78,98,232559
2.3509,0.0733,40.16,78,98,232562
2.0723,0.0684,40.36,78,98,232565
1.9062,0.0782,40.03,78,98,232569
1.7644,0.0733,40.13,78,98,232572
1.6569,0.0684,40.06,78,98,232576
1.5885,0.0684,40.23,78,98,232579
1.5591,0.0635,40.23,78,98,232583
1.5445,0.0733,40.1,78,98,232586
1.5152,0.0684,40.33,78,98,232589
1.52,0.0978,40.03,78,98,232593
1.4907,0.0684,40.16,78,98,232596
1.4956,0.0684,40.23,78,98,232599
1.5249,0.0684,40.06,78,98,232603
1.5152,0.0684,40.13,78,98,232606
1.5396,0.0684,40.06,78,98,232609
1.5347,0.0684,40.2,78,98,232612
1.5396,0.0831,40.16,78,98,232616
1.5689,0.0733,40.06,78,98,232620
1.564,0.0684,39.51,78,98,232623
1.608,0.0684,39.93,78,98,232627
1.6276,0.0635,40.1,78,98,232630
1.608,0.0635,40.16,78,98,232633
1.6373,0.0733,40.1,78,98,232637
1.6227,0.0684,40.23,78,98,232640
1.6764,0.0978,39.93,78,98,232643
1.652,0.0635,40.13,78,98,232646
1.6618,0.0684,40.4,78,98,232650
1.6764,0.0978,40.16,78,98,232653
1.6813,0.0684,40.16,78,98,232656
1.7351,0.088,39.96,78,98,232660
1.7107,0.0733,40.06,78,98,232664
1.7058,0.0635,40.1,78,98,232667
1.7058,0.0782,40.16,78,98,232671
1.7107,0.0684,40.16,78,98,232674
1.7644,0.0782,40.06,78,98,232677
1.7449,0.0733,40.13,78,98,232680
1.7498,0.0635,40.06,78,98,232684
1.7498,0.0684,40.2,78,98,232687
1.7546,0.0684,40.26,78,98,232690
1.784,0.0684,40,78,98,232694
1.7742,0.0733,40.16,78,98,232697
1.7937,0.0684,40.13,78,98,232700
1.784,0.0733,40.16,78,98,232705
1.7937,0.0635,40.16,78,98,232708
1.8182,0.0684,40.06,78,98,232711
1.8133,0.0782,40.13,78,98,232714
1.8817,0.0782,40.06,78,98,232718
1.8328,0.0684,40.4,78,98,232721
1.8426,0.0929,40.13,78,98,232724
1.8768,0.0782,40.03,78,98,232728
1.8622,0.0684,40.13,78,98,232731
1.8964,0.0733,40,78,98,232734
1.8915,0.0684,40.06,78,98,232738
1.8915,0.0684,40.16,78,98,232741
1.9257,0.1124,40.1,78,98,232744
1.9355,0.0684,40.16,78,98,232748
1.9697,0.0733,39.96,78,98,232752
1.9453,0.0733,40.13,78,98,232755
1.9404,0.0587,40.2,78,98,232758
1.9697,0.0782,40.1,78,98,232762
1.9599,0.0684,40.16,78,98,232765
2.0186,0.0733,40,78,98,232768
1.9892,0.0635,40.06,78,98,232772
1.9892,0.0538,40.16,78,98,232775
1.9941,0.0733,40.23,78,98,232778
1.9941,0.0538,40.23,78,98,232781
2.0528,0.0929,40,78,98,232785
2.0186,0.0733,40.1,78,98,232788
2.0088,0.0635,40.1,78,98,232792
1.999,0.0684,40.13,78,98,232796
1.9941,0.0684,40.16,78,98,232799
2.0381,0.0733,40,78,98,232802
1.999,0.0733,40.13,78,98,232806
1.9941,0.0684,40.1,78,98,232809
1.9501,0.0684,40.13,78,98,232812
1.9355,0.0684,40.16,78,98,232815
1.9453,0.0733,40,78,98,232819
1.9013,0.0782,40.13,78,98,232822
1.8915,0.0733,40.03,78,98,232825
1.8377,0.0684,40.16,78,98,232829
1.8035,0.0684,40.2,78,98,232833
1.784,0.0684,40.1,78,98,232836
