1.7791,0.1955,37.1,82,98,328875
1.784,0.1906,37.16,82,98,328878
1.8133,0.2053,37.01,82,98,328881
1.8035,0.1906,37.1,82,98,328885
1.8231,0.2004,37.01,82,98,328888
1.7791,0.1955,37.13,82,98,328891
1.7791,0.1906,37.13,82,98,328894
1.7937,0.1955,36.98,82,98,328898
1.7889,0.1955,37.13,82,98,328901
1.828,0.1955,36.95,82,98,328904
1.8084,0.1955,37.13,82,98,328908
1.8084,0.1906,37.16,82,98,328911
1.8328,0.2004,37.04,82,98,328914
1.8328,0.1906,37.1,82,98,328919
1.8915,0.2004,36.79,82,98,328922
1.8768,0.1955,37.01,82,98,328925
1.8719,0.1955,37.13,82,98,328929
1.8866,0.2053,37.1,82,98,328932
1.8719,0.1955,37.13,82,98,328935
1.9404,0.2102,36.76,82,98,328938
1.9013,0.1955,36.98,82,98,328942
1.8915,0.1906,37.07,82,98,328945
1.8964,0.2004,37.07,82,98,328948
1.8866,0.1955,37.1,82,98,328952
1.9404,0.2102,36.95,82,98,328955
1.9013,0.2004,37.04,82,98,328958
1.8915,0.2053,37.01,82,98,328963
1.8622,0.1906,37.13,82,98,328966
1.8377,0.1955,37.13,82,98,328969
1.8377,0.2053,37.04,82,98,328973
1.7889,0.1955,37.1,82,98,328976
1.7889,0.1955,36.98,82,98,328979
1.7351,0.1955,37.13,82,98,328982
1.7155,0.1955,37.1,82,98,328986
1.7107,0.2053,36.98,82,98,328989
1.6618,0.1955,37.1,82,98,328992
1.6764,0.1906,36.95,82,98,328996
1.6422,0.1955,37.04,82,98,328999
1.652,0.1906,37.31,82,98,329003
1.6667,0.1906,36.95,82,98,329007
1.6471,0.1906,36.55,82,98,329010
1.6667,0.2297,36.85,82,98,329013
1.6373,0.2004,37.13,82,98,329017
1.6471,0.1955,37.13,82,98,329020
1.6764,0.2053,37.07,82,98,329023
1.6618,0.1955,37.04,82,98,329026
1.7107,0.2053,36.82,82,98,329030
1.6667,0.1955,37.01,82,98,329033
1.6764,0.1955,37.1,82,98,329036
1.6862,0.2004,37.1,82,98,329040
1.6862,0.1955,37.13,82,98,329043
1.74,0.2151,36.88,82,98,329047
1.7009,0.1906,37.04,82,98,329051
1.7107,0.1906,37.07,82,98,329054
1.7449,0.2053,37.04,82,98,329057
1.828,0.2004,37.1,82,98,329061
2.0039,0.2053,36.91,82,98,329064
2.1603,0.2004,37.07,82,98,329067
2.3949,0.1955,36.98,82,98,329070
2.6588,0.1906,37.1,82,98,329074
2.9032,0.1906,37.13,82,98,329077
3.1672,0.2004,36.88,82,98,329080
3.26,0.2053,37.1,82,98,329084
3.2502,0.2004,36.95,82,98,329088
2.9863,0.1955,37.13,82,98,329091
2.6588,0.1906,37.1,82,98,329094
2.3412,0.2004,36.98,82,98,329098
1.9697,0.1955,37.1,82,98,329101
1.7107,0.1955,37.01,82,98,329104
1.4907,0.1906,37.13,82,98,329108
1.2903,0.1955,37.16,82,98,329111
1.1926,0.2004,37.07,82,98,329114
1.1339,0.1906,37.13,82,98,329118
1.1584,0.2004,36.82,82,98,329121
1.1926,0.2004,37.01,82,98,329124
1.2414,0.1955,37.13,82,98,329128
1.3099,0.2053,37.01,82,98,329132
1.3587,0.1955,37.1,82,98,329135
1.4467,0.1906,36.82,82,98,329138
1.4761,0.2151,37.01,82,98,329142
1.5249,0.1955,37.1,82,98,329145
1.5543,0.2004,37.25,82,98,329148
1.5591,0.1955,37.13,82,98,329152
1.6325,0.2102,36.95,82,98,329155
1.6129,0.2004,37.01,82,98,329158
1.6325,0.1955,37.04,82,98,329162
1.6276,0.1955,37.13,82,98,329165
1.6716,0.1955,37.1,82,98,329170
1.6813,0.1906,37.13,82,98,329174
1.7058,0.2053,36.98,82,98,329177
1.6862,0.1906,37.13,82,98,329181
1.7204,0.1955,36.91,82,98,329184
1.7204,0.2004,37.01,82,98,329187
1.74,0.1955,37.13,82,98,329191
1.7693,0.2004,37.01,82,98,329194
1.7498,0.1955,37.1,82,98,329197
1.7937,0.2004,36.85,82,98,329200
1.7644,0.2004,37.07,82,98,329204
1.7693,0.1955,37.13,82,98,329207
1.8035,0.2053,37.07,82,98,329210
1.7791,0.1955,37.16,82,98,329214
1.828,0.2053,36.82,82,98,329218
1.7937,0.1955,37.1,82,98,329221
1.8035,0.1906,37.1,82,98,329225
1.8182,0.1955,37.1,82,98,329228
1.828,0.1906,37.13,82,98,329231
1.8915,0.2102,36.95,82,98,329235
1.8768,0.2004,37.07,82,98,329238
1.8475,0.1906,37.04,82,98,329241
1.8475,0.2004,37.1,82,98,329244
1.8671,0.1955,37.1,82,98,329248
1.911,0.2053,36.98,82,98,329251
1.8964,0.2053,37.07,82,98,329254
1.9159,0.1906,36.98,82,98,329259
1.9013,0.2248,37.1,82,98,329262
1.911,0.1955,37.13,82,98,329265
1.9599,0.2053,36.88,82,98,329269
1.955,0.2004,37.13,82,98,329272
1.999,0.2053,37.01,82,98,329275
1.9648,0.1955,37.13,82,98,329278
1.9697,0.1906,37.1,82,98,329282
1.9941,0.1955,36.98,82,98,329285
1.9941,0.1955,37.13,82,98,329288
2.0332,0.1906,36.91,82,98,329292
2.0039,0.1906,37.13,82,98,329295
2.0088,0.1906,37.19,82,98,329298
2.0283,0.2004,37.04,82,98,329303
2.043,0.1955,37.13,82,98,329306
2.0577,0.2004,36.85,82,98,329309
2.0283,0.2004,37.04,82,98,329313
1.999,0.1906,37.13,82,98,329316
1.999,0.2004,37.04,82,98,329319
1.9599,0.1906,37.13,82,98,329322
1.9941,0.2053,36.79,82,98,329326
1.9355,0.1906,37.04,82,98,329329
1.9062,0.1906,37.1,82,98,329332
1.8817,0.2004,37.04,82,98,329336
1.8377,0.1955,37.13,82,98,329339
1.8671,0.2102,36.91,82,98,329342
1.7986,0.2102,37.04,82,98,329347
1.7693,0.1906,37.01,82,98,329350
1.7302,0.2004,37.13,82,98,329353
1.696,0.1955,37.13,82,98,329356
1.7058,0.2053,37.01,82,98,329360
1.6569,0.2004,37.1,82,98,329363
1.6618,0.1955,36.98,82,98,329366
1.6373,0.1955,37.13,82,98,329370
1.6325,0.2199,37.13,82,98,329373
1.6471,0.2004,36.95,82,98,329376
1.6031,0.2151,37.13,82,98,329380
1.6276,0.1906,37.04,82,98,329383
1.5982,0.1906,37.07,82,98,329387
1.608,0.1906,37.07,82,98,329391
1.6129,0.1955,36.98,82,98,329394
1.5934,0.1906,37.1,82,98,329397
1.608,0.1955,36.91,82,98,329400
1.6031,0.1955,37.07,82,98,329404
1.5934,0.1906,37.13,82,98,329407
1.6227,0.2102,37.01,82,98,329410
1.6227,0.1955,37.13,82,98,329414
1.6422,0.2004,36.91,82,98,329417
1.5982,0.1955,37.07,82,98,329420
1.608,0.1906,37.13,82,98,329424
1.6227,0.2004,36.98,82,98,329427
1.6227,0.1955,37.13,82,98,329431
1.6716,0.2102,36.82,82,98,329435
1.6422,0.2004,36.98,82,98,329438
1.6325,0.1857,37.1,82,98,329441
1.6471,0.2004,37.1,82,98,329444
1.652,0.1955,37.13,82,98,329448
1.7058,0.2053,36.88,82,98,329451
1.6813,0.2004,37.07,82,98,329454
1.6667,0.1906,37.01,82,98,329458
1.6569,0.1955,37.07,82,98,329461
1.6618,0.1906,37.13,82,98,329464
1.6911,0.2053,36.98,82,98,329468
1.6764,0.2151,37.13,82,98,329472
1.7009,0.2004,37.01,82,98,329475
1.6667,0.1955,37.04,82,98,329479
1.6569,0.1906,37.13,82,98,329482
1.6813,0.1906,37.07,82,98,329485
1.6764,0.2248,37.16,82,98,329488
1.7009,0.1955,36.95,82,98,329492
1.6716,0.1955,37.16,82,98,329495
1.6667,0.1955,37.13,82,98,329498
1.6764,0.2004,37.19,82,98,329502
1.6618,0.1955,37.13,82,98,329505
1.6911,0.2004,36.91,82,98,329508
1.6716,0.2297,36.98,82,98,329512
1.6569,0.1906,37.13,82,98,329516
1.6667,0.2004,37.04,82,98,329519
1.652,0.1906,37.13,82,98,329523
1.6911,0.2053,36.73,82,98,329526
1.6618,0.1955,37.01,82,98,329529
1.6569,0.1906,37.46,82,98,329533
1.6618,0.2102,37.1,82,98,329536
1.6716,0.1955,37.13,82,98,329539
1.696,0.2102,37.01,82,98,329542
1.6618,0.2102,37.04,82,98,329546
1.6618,0.1955,36.98,82,98,329549
1.652,0.1955,37.07,82,98,329552
1.6813,0.1955,37.13,82,98,329556
1.6716,0.2053,37.1,82,98,329560
1.6422,0.1955,37.13,82,98,329563
1.6618,0.1955,36.98,82,98,329567
1.6373,0.1955,37.1,82,98,329570
1.6422,0.1906,37.13,82,98,329573
1.6569,0.2102,36.98,82,98,329577
1.6178,0.1906,37.13,82,98,329580
1.6373,0.2004,36.98,82,98,329583
1.6031,0.2199,37.1,82,98,329586
1.6422,0.2004,37.13,82,98,329590
1.6422,0.2004,36.64,82,98,329593
1.6325,0.2151,37.13,82,98,329596
1.6618,0.1955,36.88,82,98,329601
1.6373,0.1955,37.01,82,98,329604
1.6569,0.1906,37.13,82,98,329607
1.6911,0.2053,37.04,82,98,329611
1.6813,0.1955,37.13,82,98,329614
1.7253,0.2004,36.82,82,98,329617
1.6862,0.1955,37.07,82,98,329621
1.7204,0.1955,37.13,82,98,329624
1.7204,0.1955,37.07,82,98,329627
1.7302,0.1955,37.1,82,98,329630
1.784,0.2102,36.82,82,98,329634
1.74,0.2004,37.04,82,98,329637
1.7253,0.1906,37.07,82,98,329640
1.7253,0.2004,37.1,82,98,329645
1.7253,0.1906,37.13,82,98,329648
1.7644,0.2053,36.98,82,98,329651
1.7204,0.2004,37.07,82,98,329655
1.696,0.1955,37.01,82,98,329658
1.6569,0.1955,37.1,82,98,329661
1.6325,0.1906,37.07,82,98,329664
1.6325,0.2004,36.95,82,98,329668
1.5982,0.1955,36.52,82,98,329671
1.5885,0.2004,36.98,82,98,329674
1.5445,0.1955,37.13,82,98,329678
1.5249,0.1955,37.13,82,98,329681
1.5249,0.1955,37.04,82,98,329684
1.5152,0.1955,37.16,82,98,329689
1.5689,0.1955,36.95,82,98,329692
1.5103,0.2004,37.13,82,98,329695
1.5152,0.1906,37.13,82,98,329699
1.5298,0.2004,37.04,82,98,329702
1.52,0.1955,37.13,82,98,329705
1.5543,0.2004,36.79,82,98,329709
1.5396,0.2004,37.01,82,98,329712
1.5396,0.2151,37.13,82,98,329715
1.5543,0.2004,37.25,82,98,329718
1.5347,0.1906,37.1,82,98,329722
1.5738,0.2004,36.79,82,98,329725
1.5445,0.1906,37.01,82,98,329729
1.5347,0.1955,37.13,82,98,329733
1.5494,0.2004,37.28,82,98,329736
1.5445,0.1955,37.1,82,98,329739
1.6227,0.2151,36.85,82,98,329743
1.6325,0.2004,37.01,82,98,329746
1.7155,0.1808,37.04,82,98,329749
1.8328,0.1955,37.1,82,98,329753
2.0039,0.2004,37.13,82,98,329756
2.2825,0.2102,37.01,82,98,329759
2.4731,0.1955,37.07,82,98,329762
2.7322,0.1955,36.98,82,98,329766
2.8983,0.1955,37.16,82,98,329769
3.001,0.1955,37.13,82,98,329773
3.0108,0.1955,36.95,82,98,329777
1.4418,0.1955,36.95,82,98,329781
1.2121,0.1955,37.13,82,98,329785
1.085,0.2102,36.82,82,98,329788
0.958,0.1955,37.1,82,98,329791
0.9238,0.1906,37.13,82,98,329795
0.9384,0.2004,37.04,82,98,329798
0.9531,0.1906,37.13,82,98,329801
1.0313,0.2053,36.82,82,98,329804
1.0655,0.1906,37.01,82,98,329808
1.1388,0.1906,37.16,82,98,329811
1.2072,0.2004,37.1,82,98,329815
1.2659,0.1955,37.13,82,98,329819
1.3539,0.2102,36.88,82,98,329822
1.3539,0.2004,37.07,82,98,329825
1.3832,0.1906,37.07,82,98,329829
1.3881,0.1955,37.1,82,98,329832
1.4027,0.1857,37.19,82,98,329835
1.4565,0.2053,36.91,82,98,329838
1.437,0.2004,37.1,82,98,329842
1.437,0.2151,37.07,82,98,329845
1.4223,0.1906,37.13,82,98,329848
1.4418,0.1906,37.31,82,98,329852
1.4761,0.2053,36.98,82,98,329856
1.4614,0.1906,37.16,82,98,329859
1.4956,0.1955,37.07,82,98,329863
1.4712,0.2102,37.1,82,98,329866
1.4761,0.1906,37.1,82,98,329869
1.4907,0.1955,36.98,82,98,329873
1.5005,0.1955,37.13,82,98,329876
1.5249,0.1906,36.95,82,98,329879
1.5005,0.1955,37.1,82,98,329882
1.5054,0.1711,37.13,82,98,329886
1.52,0.2004,37.04,82,98,329889
1.5152,0.2004,37.1,82,98,329892
1.5591,0.1906,36.85,82,98,329896
1.5445,0.1955,36.88,82,98,329900
1.5445,0.1857,37.19,82,98,329903
1.5591,0.2004,37.1,82,98,329907
1.5396,0.1955,37.13,82,98,329910
1.5885,0.1955,36.79,82,98,329913
1.5738,0.2297,37.01,82,98,329917
1.5836,0.1857,37.1,82,98,329920
1.5934,0.1955,37.1,82,98,329923
1.5885,0.1955,37.1,82,98,329926
1.6764,0.2102,36.88,82,98,329930
1.6227,0.2004,36.88,82,98,329933
1.6325,0.1955,37.04,82,98,329936
1.6373,0.1906,37.13,82,98,329940
1.6422,0.1955,37.13,82,98,329944
1.6764,0.2053,37.07,82,98,329947
1.6569,0.2053,37.07,82,98,329951
1.7204,0.2004,36.91,82,98,329954
1.6813,0.1906,37.13,82,98,329957
1.696,0.1955,37.13,82,98,329961
1.7253,0.2004,36.98,82,98,329964
1.7058,0.1955,37.1,82,98,329967
1.7351,0.1955,36.95,82,98,329970
1.7204,0.1857,37.07,82,98,329974
1.7351,0.1906,37.16,82,98,329977
1.7595,0.1955,36.98,82,98,329980
1.74,0.1906,37.22,82,98,329985
1.7644,0.2004,36.88,82,98,329988
1.7351,0.1906,37.07,82,98,329991
1.7449,0.1906,37.13,82,98,329995
1.7693,0.2053,37.01,82,98,329998
1.74,0.1906,37.13,82,98,330001
1.7693,0.2004,36.85,82,98,330005
1.7058,0.1955,37.04,82,98,330008
1.696,0.1857,37.13,82,98,330011
1.6911,0.2102,37.1,82,98,330014
1.6667,0.1906,37.13,82,98,330018
1.6911,0.2102,36.19,82,98,330021
1.6325,0.1906,37.01,82,98,330024
1.5787,0.1857,37.1,82,98,330029
1.5836,0.1955,37.13,82,98,330032
1.52,0.1906,37.13,82,98,330035
1.5396,0.2004,36.91,82,98,330039
1.4907,0.1906,37.04,82,98,330042
1.4663,0.1906,37.01,82,98,330045
1.4321,0.1906,37.13,82,98,330049
1.4467,0.1906,37.13,82,98,330052
1.437,0.2004,37.01,82,98,330055
1.4174,0.1955,37.1,82,98,330058
1.4174,0.1955,37.01,82,98,330062
1.3783,0.1906,37.16,82,98,330065
1.3636,0.1711,37.13,82,98,330068
1.3587,0.1906,37.01,82,98,330073
1.3587,0.1955,37.13,82,98,330076
1.3685,0.1906,36.95,82,98,330079
1.3343,0.1955,37.13,82,98,330083
1.3343,0.1906,37.16,82,98,330086
1.3441,0.2004,36.98,82,98,330089
1.3294,0.1906,37.1,82,98,330093
1.3685,0.1955,36.85,82,98,330096
1.3636,0.1955,37.04,82,98,330099
1.3587,0.1906,37.13,82,98,330103
1.3734,0.2004,37.07,82,98,330106
1.3685,0.1906,37.16,82,98,330109
1.4076,0.2004,36.79,82,98,330113
1.3881,0.1857,36.98,82,98,330117
1.393,0.1857,37.1,82,98,330120
1.4027,0.1955,37.13,82,98,330123
1.3978,0.1857,37.13,82,98,330127
1.4418,0.1906,36.88,82,98,330130
1.4223,0.1955,37.07,82,98,330133
1.4223,0.1906,37.04,82,98,330137
1.4321,0.1906,37.13,82,98,330140
1.4272,0.1906,37.13,82,98,330143
1.4467,0.2004,37.01,82,98,330147
1.4272,0.1906,37.13,82,98,330150
1.4418,0.2004,37.01,82,98,330153
1.4272,0.1955,37.1,82,98,330157
1.437,0.1906,37.07,82,98,330161
1.4565,0.2053,36.95,82,98,330164
1.4321,0.1906,36.7,82,98,330167
1.4516,0.2053,36.98,82,98,330171
1.4272,0.1857,37.07,82,98,330174
1.437,0.1906,37.13,82,98,330177
1.4418,0.1955,37.04,82,98,330181
1.437,0.1906,37.07,82,98,330184
1.4565,0.1955,36.91,82,98,330187
1.4321,0.1906,37.07,82,98,330191
1.4418,0.1906,37.16,82,98,330194
1.4809,0.2004,37.04,82,98,330198
1.4418,0.1906,37.13,82,98,330201
1.4712,0.2004,36.91,82,98,330205
1.4174,0.1857,37.04,82,98,330208
1.4174,0.1906,37.16,82,98,330211
1.4223,0.2004,37.1,82,98,330215
1.4174,0.1906,37.13,82,98,330218
1.4614,0.2102,36.79,82,98,330221
1.4516,0.1955,37.01,82,98,330225
1.4174,0.1857,37.07,82,98,330228
1.4174,0.1955,37.1,82,98,330231
1.4321,0.1906,37.13,82,98,330235
1.4712,0.2053,36.91,82,98,330238
1.4467,0.1955,37.07,82,98,330242
1.4467,0.1906,37.01,82,98,330245
1.4272,0.1857,37.13,82,98,330249
1.4321,0.1906,37.13,82,98,330252
1.4614,0.1955,36.98,82,98,330255
1.4467,0.1906,37.1,82,98,330259
1.4614,0.1906,36.95,82,98,330262
1.437,0.1906,37.13,82,98,330265
1.4418,0.1906,37.16,82,98,330269
1.4516,0.2297,37.01,82,98,330272
1.4565,0.1906,37.1,82,98,330275
1.4809,0.1906,36.95,82,98,330279
1.4614,0.1711,37.13,82,98,330283
1.4565,0.1906,37.04,82,98,330286
1.4614,0.2004,37.01,82,98,330290
1.4467,0.1906,37.13,82,98,330293
1.4956,0.1955,36.82,82,98,330296
1.4907,0.1955,37.01,82,98,330299
1.4907,0.1906,37.13,82,98,330303
1.5054,0.1906,37.07,82,98,330306
1.4907,0.1906,37.13,82,98,330309
1.5543,0.2004,36.91,82,98,330313
1.5445,0.1955,37.01,82,98,330316
1.5591,0.1857,37.13,82,98,330319
1.6129,0.1955,37.1,82,98,330323
1.5934,0.1906,37.13,82,98,330327
1.6569,0.2053,36.91,82,98,330330
1.652,0.1955,37.07,82,98,330334
1.652,0.1857,37.01,82,98,330337
1.652,0.1955,37.1,82,98,330340
1.6569,0.1906,37.13,82,98,330343
1.6911,0.2004,37.07,82,98,330347
1.6716,0.1906,37.13,82,98,330350
1.696,0.1955,36.95,82,98,330353
1.6716,0.1955,37.1,82,98,330357
1.6716,0.1906,37.1,82,98,330360
1.6716,0.2004,36.98,82,98,330363
1.6129,0.1955,37.1,82,98,330368
1.6129,0.1906,36.98,82,98,330371
1.5591,0.2199,37.04,82,98,330374
1.5445,0.1906,37.13,82,98,330378
1.5396,0.2053,36.95,82,98,330381
1.4956,0.1906,37.1,82,98,330384
1.5005,0.1906,36.85,82,98,330387
1.4663,0.2004,36.82,82,98,330392
1.4321,0.1906,37.07,82,98,330395
1.4321,0.2151,37.07,82,98,330399
1.437,0.1955,37.1,82,98,330402
1.4418,0.1857,37.16,82,98,330405
1.5005,0.2004,36.95,82,98,330409
1.4614,0.1906,37.07,82,98,330413
1.4712,0.1857,36.95,82,98,330416
1.4663,0.1906,37.13,82,98,330420
1.4809,0.2102,37.13,82,98,330423
1.5152,0.1955,36.95,82,98,330426
1.4858,0.2004,37.1,82,98,330430
1.4956,0.1955,36.95,82,98,330433
1.4614,0.1857,37.1,82,98,330436
1.4809,0.2004,37.13,82,98,330440
1.5494,0.1955,37.01,82,98,330443
1.6031,0.1906,37.13,82,98,330446
1.7595,0.1857,37.01,82,98,330449
1.9159,0.1857,37.07,82,98,330454
2.1603,0.1857,37.1,82,98,330457
2.4829,0.1955,36.98,82,98,330460
2.7077,0.1857,37.13,82,98,330464
2.9814,0.1906,36.88,82,98,330467
3.0499,0.1857,37.13,82,98,330470
3.0108,0.1857,37.13,82,98,330474
2.8152,0.1955,37.1,82,98,330477
2.478,0.1857,37.13,82,98,330480
2.1799,0.1955,36.82,82,98,330484
1.7889,0.1906,37.22,82,98,330487
1.4809,0.1808,37.1,82,98,330490
1.2512,0.1906,37.1,82,98,330493
1.0753,0.1857,37.13,82,98,330498
1.002,0.2053,36.91,82,98,330501
0.9335,0.1955,37.01,82,98,330504
0.9286,0.1857,37.04,82,98,330508
0.9629,0.1808,37.13,82,98,330511
1.0117,0.1857,37.1,82,98,330514
1.0948,0.1955,37.04,82,98,330518
1.1486,0.1857,37.07,82,98,330521
1.2317,0.1955,36.98,82,98,330524
1.2512,0.1906,37.13,82,98,330527
1.2854,0.2151,37.13,82,98,330531
1.3294,0.1906,37.07,82,98,330534
1.3441,0.1857,37.1,82,98,330537
1.393,0.1955,36.98,82,98,330542
1.393,0.1857,37.1,82,98,330545
1.4174,0.1955,37.13,82,98,330548
1.4467,0.1906,37.01,82,98,330552
1.437,0.1857,37.1,82,98,330555
1.4712,0.1906,36.88,82,98,330558
1.4614,0.1857,37.01,82,98,330562
1.4761,0.1711,37.13,82,98,330565
1.5054,0.1955,37.01,82,98,330568
1.4956,0.1857,37.1,82,98,330572
1.5347,0.1955,36.88,82,98,330575
1.5152,0.1857,37.01,82,98,330578
1.52,0.1857,37.19,82,98,330583
1.5494,0.2444,37.07,82,98,330586
1.5738,0.1857,37.1,82,98,330589
1.6031,0.1906,36.85,82,98,330592
1.5689,0.1955,36.98,82,98,330596
1.564,0.1808,37.04,82,98,330599
1.5787,0.1906,37.13,82,98,330602
1.5885,0.1808,37.13,82,98,330606
1.6373,0.2004,36.98,82,98,330609
1.608,0.1906,37.16,82,98,330612
1.6178,0.2053,37.01,82,98,330616
1.6129,0.1906,37.16,82,98,330619
1.6276,0.1857,37.13,82,98,330622
1.6764,0.1906,36.95,82,98,330626
1.6569,0.2004,37.1,82,98,330630
1.7058,0.1955,36.98,82,98,330633
1.6618,0.1857,37.13,82,98,330636
1.6764,0.1857,37.13,82,98,330640
1.7107,0.1906,36.91,82,98,330643
1.7155,0.2102,37.13,82,98,330646
1.7595,0.1857,36.95,82,98,330650
1.7302,0.1857,37.07,82,98,330653
1.74,0.1857,37.13,82,98,330656
1.7742,0.1906,37.01,82,98,330660
1.7693,0.1857,36.95,82,98,330663
1.8573,0.1955,36.85,82,98,330667
1.7986,0.1808,37.13,82,98,330671
1.8084,0.1808,37.13,82,98,330674
1.8231,0.1906,37.07,82,98,330677
1.8182,0.1906,37.13,82,98,330680
1.8768,0.1955,36.79,82,98,330684
1.8573,0.1906,37.04,82,98,330687
1.8524,0.1955,37.1,82,98,330690
1.8524,0.1906,37.1,82,98,330694
1.8426,0.1857,37.1,82,98,330697
1.9013,0.2053,36.91,82,98,330700
1.8768,0.1955,37.04,82,98,330704
1.8719,0.1906,37.01,82,98,330707
1.8622,0.1906,37.13,82,98,330711
1.8426,0.1857,37.13,82,98,330715
1.8622,0.1906,36.95,82,98,330718
1.8328,0.1906,37.07,82,98,330721
1.8328,0.1906,36.98,82,98,330724
1.7986,0.1808,37.13,82,98,330728
1.7644,0.1857,37.1,82,98,330731
1.7546,0.1808,37.01,82,98,330734
1.7253,0.1857,37.13,82,98,330738
1.7253,0.1906,36.88,82,98,330741
1.6716,0.1955,37.13,82,98,330744
1.652,0.1857,36.7,82,98,330748
1.6422,0.1955,37.07,82,98,330752
1.5885,0.1857,37.13,82,98,330755
1.5934,0.2248,36.88,82,98,330759
1.5543,0.1857,37.01,82,98,330762
1.5494,0.1857,37.13,82,98,330765
1.5543,0.1906,37.04,82,98,330769
1.52,0.1857,37.22,82,98,330772
1.5494,0.2004,36.82,82,98,330775
1.5005,0.1857,36.98,82,98,330778
1.5152,0.1857,37.1,82,98,330782
1.5347,0.1906,37.07,82,98,330785
1.5249,0.1857,37.13,82,98,330788
1.5591,0.2102,36.88,82,98,330792
1.5249,0.1955,36.95,82,98,330796
1.5249,0.1857,37.04,82,98,330799
1.5298,0.1857,37.1,82,98,330803
1.5396,0.1857,37.13,82,98,330806
1.5934,0.1906,37.01,82,98,330809
1.5591,0.1906,37.13,82,98,330813
1.5738,0.2053,37.01,82,98,330816
1.564,0.1857,37.13,82,98,330819
1.5787,0.2151,37.13,82,98,330822
1.6129,0.1906,36.98,82,98,330826
1.5934,0.1906,37.1,82,98,330829
1.6422,0.1955,36.98,82,98,330832
1.5934,0.176,37.19,82,98,330836
1.6031,0.1857,37.13,82,98,330840
1.6227,0.1857,37.01,82,98,330843
1.6178,0.1857,37.1,82,98,330847
1.6422,0.1857,36.91,82,98,330850
1.6031,0.2151,37.1,82,98,330853
1.608,0.1857,37.13,82,98,330857
1.6325,0.1906,37.04,82,98,330860
1.6325,0.1857,37.1,82,98,330863
1.6716,0.1906,36.82,82,98,330867
1.6276,0.1857,37.04,82,98,330870
1.6276,0.1808,37.16,82,98,330873
1.6276,0.2199,37.07,82,98,330876
1.6227,0.1515,37.13,82,98,330881
1.6911,0.2053,36.79,82,98,330884
1.696,0.1906,37.04,82,98,330887
1.652,0.1808,37.04,82,98,330891
1.6422,0.1906,37.04,82,98,330894
1.6325,0.1857,37.13,82,98,330897
1.6667,0.1955,36.98,82,98,330901
1.6618,0.1906,37.07,82,98,330904
1.6569,0.1857,37.04,82,98,330907
1.6373,0.1906,37.04,82,98,330911
1.6276,0.1906,37.1,82,98,330914
1.6471,0.1906,37.04,82,98,330917
1.6325,0.1857,37.16,82,98,330920
1.6618,0.1955,36.95,82,98,330925
1.6373,0.1857,37.13,82,98,330928
1.6667,0.1906,37.13,82,98,330931
1.6325,0.1857,37.01,82,98,330935
1.6178,0.1857,37.1,82,98,330938
1.6422,0.1808,36.95,82,98,330941
1.6227,0.1857,37.1,82,98,330945
1.6276,0.1857,37.13,82,98,330948
1.6422,0.1906,37.01,82,98,330951
1.6276,0.1857,37.13,82,98,330955
1.6667,0.1906,36.82,82,98,330958
1.6813,0.1711,37.01,82,98,330961
1.652,0.1857,37.1,82,98,330966
1.6667,0.1906,37.07,82,98,330969
1.6471,0.1857,37.25,82,98,330972
1.6911,0.1906,36.82,82,98,330975
1.6471,0.1857,37.01,82,98,330979
1.652,0.1808,37.1,82,98,330982
1.6618,0.2053,37.1,82,98,330985
1.6618,0.1808,37.13,82,98,330989
1.7058,0.2004,36.98,82,98,330992
1.6716,0.2004,37.07,82,98,330995
1.6618,0.1711,37.01,82,98,330999
1.6569,0.1857,37.16,81,98,331002
1.6618,0.1857,37.1,81,98,331008
1.6716,0.1808,37.13,81,98,331011
1.696,0.1906,36.98,81,98,331014
1.6716,0.1857,37.1,81,98,331018
1.7009,0.1857,37.01,81,98,331021
1.6813,0.1808,37.01,81,98,331024
1.6862,0.1808,37.13,81,98,331028
1.7253,0.1955,37.01,81,98,331031
1.7302,0.1711,37.13,81,98,331034
1.784,0.1906,36.79,81,98,331037
1.7449,0.1808,36.98,81,98,331041
1.7595,0.1808,37.13,81,98,331044
1.784,0.1906,37.13,81,98,331047
1.7889,0.1857,37.13,81,98,331052
1.8524,0.2053,36.85,81,98,331055
1.8133,0.1955,37.01,81,98,331058
1.8182,0.1808,37.07,81,98,331062
1.8084,0.1857,37.1,81,98,331065
1.8182,0.1808,37.31,81,98,331068
1.8719,0.1955,37.07,81,98,331072
1.8475,0.1711,37.1,81,98,331075
1.8671,0.1857,36.98,81,98,331078
1.8377,0.1857,37.13,81,98,331082
1.8328,0.1808,37.07,81,98,331085
1.8475,0.1955,36.95,81,98,331088
1.8084,0.1857,37.16,81,98,331091
1.8133,0.1955,36.98,81,98,331096
1.7546,0.1808,37.07,81,98,331099
1.7253,0.1808,37.16,81,98,331102
1.7253,0.1857,37.01,81,98,331106
1.6764,0.1857,37.1,81,98,331109
1.6813,0.1857,36.91,81,98,331112
1.6422,0.1857,37.1,81,98,331116
1.6276,0.1808,37.1,81,98,331119
1.6618,0.1955,37.01,81,98,331122
1.5982,0.1857,37.19,81,98,331126
1.6569,0.1857,36.82,81,98,331129
1.6276,0.1808,37.16,81,98,331132
1.6422,0.2102,37.13,81,98,331137
1.6422,0.1955,37.1,81,98,331140
1.6373,0.1857,37.13,81,98,331143
1.696,0.2004,36.88,81,98,331146
1.6618,0.1857,37.04,81,98,331150
1.6667,0.1808,37.04,81,98,331153
1.6716,0.1857,37.1,81,98,331156
1.6716,0.1857,37.16,81,98,331160
1.7009,0.1955,36.91,81,98,331163
1.6813,0.1906,36.46,81,98,331166
1.7009,0.1808,36.98,81,98,331170
1.696,0.1857,37.1,81,98,331173
1.7107,0.1857,37.19,81,98,331176
1.7595,0.1955,37.01,81,98,331181
1.8133,0.1857,37.1,81,98,331184
1.955,0.1906,37.01,81,98,331187
2.1017,0.1857,37.1,81,98,331190
2.346,0.1808,37.13,81,98,331194
2.6295,0.1857,36.91,81,98,331197
2.8788,0.1857,37.1,81,98,331200
3.1427,0.1857,36.95,81,98,331204
3.2307,0.2199,37.1,81,98,331207
3.2307,0.1808,37.16,81,98,331210
3.0596,0.1906,37.07,81,98,331214
2.7126,0.1955,37.13,81,98,331217
2.4047,0.1906,36.85,81,98,331220
2.0186,0.1906,37.01,81,98,331224
1.7155,0.1808,37.28,81,98,331228
1.5054,0.1906,37.04,81,98,331231
1.3245,0.1515,37.1,81,98,331234
1.2463,0.1906,36.82,81,98,331238
1.1486,0.1808,37.01,81,98,331241
1.1486,0.1808,37.1,81,98,331244
1.1877,0.1857,37.04,81,98,331248
1.2463,0.1857,37.1,81,98,331251
1.3587,0.2053,36.85,81,98,331254
1.3978,0.1906,37.01,81,98,331258
1.4467,0.1857,37.07,81,98,331261
1.4907,0.1857,37.13,81,98,331265
1.5347,0.1808,37.16,81,98,331268
1.608,0.2004,36.98,81,98,331272
1.608,0.1857,37.16,81,98,331275
1.6325,0.1857,36.95,81,98,331278
1.6276,0.1857,37.1,81,98,331282
1.6373,0.1857,37.16,81,98,331285
1.6813,0.1955,36.95,81,98,331288
1.6764,0.1857,37.1,81,98,331292
1.7302,0.1906,37.01,81,98,331295
1.696,0.1808,37.07,81,98,331298
1.7058,0.1808,36.76,81,98,331302
1.7204,0.1857,37.01,81,98,331305
1.7204,0.1857,37.16,81,98,331309
1.7595,0.1857,36.91,81,98,331312
1.7449,0.1808,37.1,81,98,331316
1.7546,0.1808,37.19,81,98,331319
1.7742,0.2199,37.01,81,98,331322
1.7595,0.1808,37.13,81,98,331326
1.8084,0.1906,36.85,81,98,331329
1.7791,0.1808,37.07,81,98,331332
1.7889,0.1808,37.25,81,98,331336
1.7937,0.2102,37.1,81,98,331339
1.784,0.1808,37.13,81,98,331342
1.8328,0.2248,36.85,81,98,331346
1.8035,0.1857,37.04,81,98,331350
1.8084,0.176,37.37,81,98,331353
1.828,0.1955,37.1,81,98,331356
1.8182,0.1857,37.13,81,98,331360
1.8719,0.1955,36.91,81,98,331363
1.8475,0.1906,37.07,81,98,331366
1.8622,0.1808,37.01,81,98,331370
1.8622,0.2053,37.13,81,98,331373
1.8719,0.1857,37.13,81,98,331376
1.9062,0.1906,37.07,81,98,331380
1.8915,0.1711,37.1,81,98,331383
1.9159,0.1906,36.95,81,98,331386
1.9013,0.1906,37.16,81,98,331390
1.9208,0.1808,37.13,81,98,331394
1.9404,0.1857,37.01,81,98,331397
1.9355,0.1808,37.13,81,98,331400
1.9746,0.1857,36.95,81,98,331404
1.9453,0.1808,37.13,81,98,331407
1.9697,0.1808,37.13,81,98,331410
1.999,0.1906,37.1,81,98,331414
1.9844,0.176,37.13,81,98,331417
2.0235,0.1906,36.85,81,98,331420
1.9941,0.2053,36.95,81,98,331424
1.9941,0.1808,37.13,81,98,331427
2.0235,0.2004,37.07,81,98,331430
2.0137,0.1857,37.1,81,98,331435
2.0626,0.1906,36.82,81,98,331438
2.0088,0.1808,36.98,81,98,331441
2.0137,0.1808,37.1,81,98,331444
2.0186,0.1857,37.1,81,98,331448
2.0088,0.1808,37.13,81,98,331451
2.0626,0.2004,36.88,81,98,331454
2.0235,0.1906,37.01,81,98,331458
1.9746,0.1808,37.07,81,98,331461
1.9404,0.1857,37.19,81,98,331464
1.9159,0.1857,37.1,81,98,331468
1.9355,0.1955,36.85,81,98,331471
1.8866,0.1808,37.07,81,98,331474
1.8524,0.1857,37.01,81,98,331479
1.7986,0.1857,37.13,81,98,331482
1.7693,0.1808,37.1,81,98,331485
1.784,0.1906,36.95,81,98,331488
1.7351,0.1857,37.16,81,98,331492
1.7498,0.1906,37.01,81,98,331495
1.7009,0.1808,37.01,81,98,331498
1.6862,0.1906,37.19,81,98,331502
1.6862,0.1857,36.76,81,98,331505
1.6716,0.1906,37.1,81,98,331508
1.6911,0.1857,36.91,81,98,331512
1.6569,0.1808,37.01,81,98,331515
1.652,0.1906,37.1,81,98,331518
1.652,0.1955,37.04,81,98,331523
1.6276,0.1515,37.13,81,98,331526
1.6618,0.1955,36.85,81,98,331529
1.6276,0.176,37.1,81,98,331532
1.6373,0.1808,37.16,81,98,331536
1.6471,0.1808,37.07,81,98,331539
1.6276,0.1808,37.13,81,98,331542
1.7107,0.1955,36.85,81,98,331546
1.652,0.1857,37.01,81,98,331549
1.6569,0.176,37.13,81,98,331552
1.6667,0.1857,37.07,81,98,331556
1.6667,0.1808,37.25,81,98,331559
1.7155,0.2248,36.91,81,98,331563
1.696,0.1906,37.07,81,98,331567
1.7009,0.1808,36.98,81,98,331570
1.7058,0.1906,37.1,81,98,331573
1.7058,0.1808,37.13,81,98,331576
1.74,0.1955,36.98,81,98,331580
1.7204,0.2004,37.07,81,98,331583
1.74,0.2053,36.98,81,98,331586
1.7253,0.1857,37.13,81,98,331590
1.7351,0.1857,37.1,81,98,331593
1.7449,0.1857,37.04,81,98,331596
1.7351,0.1857,37.1,81,98,331600
1.7595,0.1808,36.98,81,98,331603
1.7155,0.1808,37.13,81,98,331607
1.7595,0.1857,37.13,81,98,331611
1.7546,0.1906,37.07,81,98,331614
1.74,0.1906,37.13,81,98,331619
1.7302,0.1808,37.13,81,98,331622
1.7937,0.1955,36.79,81,98,331625
1.7058,0.2151,37.01,81,98,331629
1.6862,0.176,37.1,81,98,331632
1.696,0.1857,37.13,81,98,331635
1.696,0.2297,36.91,81,98,331638
1.74,0.2004,36.91,81,98,331642
1.7155,0.1906,37.07,81,98,331645
1.7009,0.1808,37.01,81,98,331649
1.6813,0.1906,37.19,81,98,331653
1.6862,0.1808,37.13,81,98,331656
1.7155,0.1955,37.01,81,98,331659
1.7009,0.1857,37.1,81,98,331663
1.7155,0.1857,36.98,81,98,331666
1.6813,0.1857,37.13,81,98,331669
1.6862,0.1515,37.19,81,98,331672
1.7155,0.1955,36.98,81,98,331676
1.696,0.1857,37.16,81,98,331679
1.7253,0.1857,36.98,81,98,331682
1.6911,0.1808,37.07,81,98,331686
1.6862,0.2004,37.13,81,98,331689
1.7009,0.1857,37.04,81,98,331693
1.6862,0.1857,37.1,81,98,331697
1.7204,0.1906,36.88,81,98,331700
1.6911,0.1857,37.1,81,98,331703
1.6862,0.1857,37.13,81,98,331707
1.6911,0.1955,37.04,81,98,331710
1.6764,0.1857,37.04,81,98,331713
1.7253,0.2004,36.82,81,98,331717
1.696,0.1857,37.04,81,98,331720
1.7058,0.1906,37.13,81,98,331723
1.7009,0.1906,37.1,81,98,331726
1.7058,0.1857,37.16,81,98,331730
1.7595,0.2102,36.88,81,98,331734
1.74,0.1906,37.04,81,98,331737
1.7498,0.1808,37.04,81,98,331741
1.7546,0.1906,37.1,81,98,331744
1.7644,0.1808,37.16,81,98,331747
1.8084,0.1906,36.91,81,98,331751
1.7986,0.1906,37.07,81,98,331754
1.828,0.1857,36.98,81,98,331757
1.828,0.1906,37.16,81,98,331761
1.8573,0.1711,37.13,81,98,331764
1.8768,0.1955,37.04,81,98,331767
1.8866,0.1808,37.1,81,98,331770
1.8866,0.1955,37.01,81,98,331774
1.8768,0.1857,37.19,81,98,331778
1.8915,0.1808,37.13,81,98,331781
1.9013,0.1857,37.1,81,98,331785
1.8768,0.1857,37.13,81,98,331788
1.8817,0.1808,36.91,81,98,331791
1.8426,0.1857,37.16,81,98,331795
1.828,0.1857,37.13,81,98,331798
1.828,0.1955,37.07,81,98,331801
1.7791,0.1857,37.13,81,98,331805
1.7889,0.1906,36.79,81,98,331808
1.7253,0.1906,37.01,81,98,331811
1.7058,0.1711,37.13,81,98,331814
1.6911,0.1906,37.1,81,98,331819
1.7058,0.1906,37.19,81,98,331822
1.7058,0.2004,36.79,81,98,331825
1.652,0.1857,37.01,81,98,331829
1.6569,0.1808,37.07,81,98,331832
1.6471,0.1906,37.1,81,98,331835
1.6471,0.1857,37.31,81,98,331839
1.7058,0.2297,36.91,81,98,331842
1.6813,0.1906,37.07,81,98,331845
1.6764,0.1857,37.1,81,98,331849
1.6618,0.1808,37.1,81,98,331852
1.6716,0.1857,37.13,81,98,331855
1.7058,0.1955,37.04,81,98,331858
1.6862,0.1857,37.07,81,98,331863
1.7155,0.1906,37.1,81,98,331866
1.6813,0.1857,37.13,81,98,331869
1.6911,0.1808,37.01,81,98,331873
1.7253,0.1955,36.95,81,98,331876
1.7107,0.1857,36.85,81,98,331879
1.7644,0.1955,36.98,81,98,331883
1.7693,0.1857,37.07,81,98,331886
1.8426,0.1857,37.25,81,98,331889
1.9795,0.1857,36.95,81,98,331893
2.1505,0.1857,37.1,81,98,331896
2.4536,0.1955,36.88,81,98,331899
2.6588,0.1857,37.16,81,98,331904
2.913,0.2053,37.13,81,98,331907
3.1525,0.1955,37.07,81,98,331910
3.2209,0.1857,37.13,81,98,331913
3.2502,0.1955,36.79,81,98,331917
2.9521,0.1857,37.01,81,98,331920
2.6197,0.1857,37.1,81,98,331923
2.2776,0.1906,37.1,81,98,331927
1.9404,0.1857,36.82,81,98,331930
1.7204,0.2053,36.95,81,98,331933
1.4761,0.1906,37.07,81,98,331937
1.3196,0.1808,37.16,81,98,331940
1.2268,0.1711,37.13,81,98,331943
1.1779,0.1857,37.13,81,98,331948
1.1926,0.2004,36.91,81,98,331951
1.2072,0.1906,37.1,81,98,331954
1.2854,0.1955,36.98,81,98,331957
1.349,0.1711,37.1,81,98,331961
1.4223,0.1857,37.1,81,98,331964
1.5152,0.1955,37.04,81,98,331967
1.5445,0.1857,37.1,81,98,331971
1.6178,0.1906,36.98,81,98,331974
1.6227,0.1857,37.1,81,98,331977
1.6667,0.1857,37.01,81,98,331981
1.7302,0.1711,36.98,81,98,331984
1.7009,0.1857,37.16,81,98,331987
1.74,0.1906,36.88,81,98,331992
1.7253,0.1857,37.13,81,98,331995
1.7449,0.1906,37.13,81,98,331998
1.7791,0.1906,37.07,81,98,332001
1.7693,0.1857,37.13,81,98,332005
1.8182,0.2004,36.85,81,98,332008
1.7889,0.1906,37.04,81,98,332011
1.7889,0.1857,37.13,81,98,332015
1.8035,0.1906,37.1,81,98,332018
1.8084,0.1857,37.13,81,98,332021
1.8671,0.2053,36.82,81,98,332025
1.828,0.1955,37.01,81,98,332028
1.8328,0.1808,37.07,81,98,332032
1.8426,0.1906,37.19,81,98,332036
1.8524,0.1857,37.16,81,98,332039
1.9062,0.1955,36.98,81,98,332042
1.8768,0.1906,37.07,81,98,332045
1.8866,0.1857,36.98,81,98,332049
1.8573,0.1857,37.19,81,98,332052
1.8671,0.1857,37.13,81,98,332055
1.9013,0.1906,37.1,81,98,332059
1.8866,0.1857,37.1,81,98,332062
1.9306,0.1906,36.98,81,98,332065
1.8866,0.1857,37.1,81,98,332069
1.9013,0.1857,37.13,81,98,332072
1.9355,0.1906,37.01,81,98,332076
1.9208,0.1808,37.13,81,98,332080
1.9599,0.1857,36.95,81,98,332083
1.9453,0.1955,37.01,81,98,332086
1.9453,0.1857,37.13,81,98,332090
1.9746,0.2444,37.01,81,98,332093
1.9697,0.1857,37.13,81,98,332096
2.0283,0.1906,36.85,81,98,332099
2.0039,0.1711,37.1,81,98,332103
2.0137,0.1808,37.16,81,98,332106
2.0283,0.1906,37.1,81,98,332109
2.0186,0.1857,37.16,81,98,332113
2.0919,0.2053,36.82,81,98,332116
2.0626,0.1857,37.01,81,98,332120
2.0674,0.1808,37.13,81,98,332124
2.1017,0.1808,37.16,81,98,332127
2.0626,0.1857,37.22,81,98,332130
2.131,0.2395,36.91,81,98,332133
2.087,0.1906,37.07,81,98,332137
2.0821,0.1711,37.1,81,98,332140
2.0821,0.1857,37.13,81,98,332143
2.0821,0.1857,37.19,81,98,332147
2.1114,0.1955,36.91,81,98,332150
2.0772,0.1906,37.07,81,98,332153
2.087,0.1857,36.98,81,98,332157
2.0577,0.1906,37.1,81,98,332161
2.0577,0.1857,37.13,81,98,332164
2.043,0.1906,36.98,81,98,332168
1.999,0.1857,37.07,81,98,332171
2.0088,0.1955,37.01,81,98,332174
1.9355,0.1857,37.1,81,98,332177
1.9159,0.1906,37.13,81,98,332181
1.9013,0.1955,37.01,81,98,332184
1.8573,0.1857,37.1,81,98,332187
1.8524,0.1857,36.95,81,98,332191
1.7986,0.1857,37.19,81,98,332194
1.7889,0.1857,37.13,81,98,332197
1.784,0.1955,37.07,81,98,332201
1.7449,0.1857,37.13,81,98,332205
1.7595,0.1955,36.82,81,98,332208
1.7204,0.1906,37.07,81,98,332212
1.7009,0.2346,37.13,81,98,332215
1.7107,0.1906,37.1,81,98,332218
1.7009,0.1857,37.16,81,98,332221
1.7449,0.2004,36.79,81,98,332225
1.7204,0.2004,37.01,81,98,332228
1.696,0.1808,37.04,81,98,332232
1.696,0.1857,36.98,81,98,332235
1.6618,0.1857,37.13,81,98,332238
1.6764,0.1857,37.16,81,98,332242
1.7058,0.1955,37.04,81,98,332246
1.7058,0.1711,37.1,81,98,332249
1.7351,0.1906,37.01,81,98,332253
1.7009,0.1906,37.13,81,98,332256
1.7107,0.1711,37.13,81,98,332259
1.7449,0.1906,37.01,81,98,332263
1.7351,0.1857,37.1,81,98,332266
1.7742,0.1857,36.91,81,98,332269
1.7546,0.1808,36.98,81,98,332273
1.7498,0.1808,37.13,81,98,332276
1.8084,0.1955,37.04,81,98,332279
1.7693,0.1857,37.13,81,98,332282
1.8328,0.1906,37.04,81,98,332286
1.7937,0.1808,37.04,81,98,332290
1.8035,0.1857,37.13,81,98,332293
1.8133,0.2053,37.13,81,98,332297
1.8182,0.1906,37.13,81,98,332300
1.8671,0.2053,37.04,81,98,332303
1.8426,0.1906,37.01,81,98,332307
1.8328,0.1808,37.07,81,98,332310
1.8182,0.1906,37.07,81,98,332313
1.8133,0.1857,37.16,81,98,332317
1.8524,0.2004,36.98,81,98,332320
1.8328,0.1906,37.1,81,98,332323
1.8377,0.1857,37.01,81,98,332326
1.8182,0.1857,37.1,81,98,332331
1.8182,0.1857,37.13,81,98,332334
1.8377,0.1955,36.95,81,98,332337
1.8084,0.1857,37.19,81,98,332341
1.8377,0.1906,36.98,81,98,332344
1.8133,0.1808,37.1,81,98,332347
1.8182,0.1857,37.16,81,98,332351
1.8182,0.1711,37.04,81,98,332354
1.8035,0.1857,37.16,81,98,332357
1.828,0.1857,36.91,81,98,332361
1.8035,0.1857,37.13,81,98,332364
1.8133,0.1857,37.13,81,98,332367
1.8377,0.1906,37.01,81,98,332371
1.8035,0.1857,37.13,81,98,332375
1.8377,0.1955,36.88,81,98,332378
1.7986,0.1808,37.04,81,98,332381
1.8133,0.1857,37.28,81,98,332385
1.8377,0.1906,37.13,81,98,332388
1.8133,0.1857,37.07,81,98,332391
1.8622,0.2053,36.82,81,98,332395
1.8182,0.1906,37.04,81,98,332398
1.8084,0.1808,37.1,81,98,332401
1.8231,0.1906,37.1,81,98,332405
1.8231,0.1857,37.13,81,98,332408
1.8671,0.2346,36.91,81,98,332411
1.828,0.1906,37.07,81,98,332416
1.8231,0.1857,37.07,81,98,332419
1.8133,0.1857,37.13,81,98,332422
1.8231,0.1857,37.07,81,98,332425
1.8573,0.1955,37.01,81,98,332429
1.828,0.1906,37.07,81,98,332432
1.8426,0.1906,37.1,81,98,332435
1.8084,0.1906,37.1,81,98,332439
1.8182,0.1906,37.1,81,98,332442
1.8328,0.1857,37.04,81,98,332445
1.8524,0.1711,37.13,81,98,332449
1.8475,0.1857,36.98,81,98,332452
1.8133,0.1857,37.13,81,98,332455
1.8084,0.1857,37.1,81,98,332460
1.828,0.1955,37.01,81,98,332463
1.8133,0.1857,37.1,81,98,332466
1.8573,0.1955,36.85,81,98,332470
1.828,0.1906,37.01,81,98,332473
1.8133,0.1857,37.16,81,98,332476
1.828,0.1906,37.07,81,98,332479
1.8182,0.1857,37.16,81,98,332483
1.8768,0.1857,36.76,81,98,332486
1.8475,0.1857,36.95,81,98,332489
1.8573,0.176,37.1,81,98,332493
1.8671,0.1906,37.1,81,98,332496
1.8719,0.1857,37.13,81,98,332499
1.9453,0.2151,36.91,81,98,332504
1.9306,0.1906,37.04,81,98,332507
1.9355,0.1857,36.34,81,98,332510
1.9257,0.1808,37.13,81,98,332514
1.9208,0.1857,37.1,81,98,332517
1.9501,0.1955,37.07,81,98,332520
1.9404,0.1906,37.1,81,98,332523
1.9795,0.1906,36.98,81,98,332527
1.9599,0.1906,37.19,81,98,332530
1.9648,0.1857,37.13,81,98,332533
1.9892,0.1955,37.01,81,98,332537
1.955,0.1955,37.1,81,98,332540
1.9746,0.1857,37.07,81,98,332544
1.9208,0.176,37.07,81,98,332548
1.9013,0.1857,37.16,81,98,332551
1.8866,0.2151,36.95,81,98,332554
1.8426,0.1857,37.1,81,98,332558
1.8475,0.1906,36.85,81,98,332561
1.7986,0.1711,37.1,81,98,332564
1.784,0.1857,37.34,81,98,332568
1.784,0.1906,37.04,81,98,332571
1.7351,0.1857,37.13,81,98,332574
1.7644,0.1955,36.82,81,98,332577
1.7155,0.1808,37.04,81,98,332581
1.7253,0.1857,37.13,81,98,332584
1.7253,0.1857,37.13,81,98,332588
1.7204,0.1857,37.25,81,98,332592
1.7742,0.2493,36.88,81,98,332595
1.7302,0.1906,37.07,81,98,332598
1.74,0.1808,37.04,81,98,332602
1.7449,0.1906,37.07,81,98,332605
1.7498,0.1857,37.13,81,98,332608
1.784,0.1955,36.95,81,98,332612
1.7546,0.1906,37.07,81,98,332615
1.7644,0.1857,37.04,81,98,332618
1.7498,0.1857,37.1,81,98,332621
1.7791,0.1808,37.13,81,98,332625
1.7937,0.1906,37.04,81,98,332628
1.7791,0.1955,37.19,81,98,332632
1.8231,0.1955,37.01,81,98,332636
1.8426,0.2004,37.13,81,98,332639
1.9453,0.1711,37.13,81,98,332642
2.1212,0.2053,37.01,81,98,332646
2.3167,0.1857,37.13,81,98,332649
2.61,0.1906,36.91,81,98,332652
2.8348,0.1955,37.1,81,98,332656
3.0841,0.1857,37.1,81,98,332659
3.2893,0.1906,37.01,81,98,332662
3.3284,0.1808,37.13,81,98,332665
3.2796,0.1906,36.88,81,98,332669
2.957,0.1906,37.04,81,98,332673
2.5855,0.2053,37.1,81,98,332676
2.2434,0.1906,37.1,81,98,332680
1.9062,0.1857,37.19,81,98,332683
1.6911,0.2053,36.79,81,98,332686
1.4516,0.1857,37.01,81,98,332690
1.3099,0.1955,37.07,81,98,332693
1.2317,0.1906,37.1,81,98,332696
1.1975,0.1857,37.13,81,98,332700
1.261,0.2053,36.95,81,98,332703
1.2952,0.1906,37.04,81,98,332706
1.3587,0.2004,37.04,81,98,332709
1.4076,0.1857,37.1,81,98,332713
1.4614,0.1857,37.16,81,98,332717
1.5347,0.1955,37.04,81,98,332720
1.5543,0.1906,37.1,81,98,332724
1.6178,0.1906,36.95,81,98,332727
1.6422,0.1906,37.13,81,98,332730
1.6373,0.1857,37.19,81,98,332734
1.6764,0.2053,36.98,81,98,332737
1.6667,0.1857,37.13,81,98,332740
1.7107,0.1955,36.95,81,98,332744
1.696,0.1857,37.07,81,98,332747
1.7155,0.1857,37.22,81,98,332750
1.7351,0.1906,36.98,81,98,332754
1.7302,0.1857,37.13,81,98,332758
1.8133,0.1955,36.85,81,98,332761
1.7644,0.1906,37.16,81,98,332764
1.784,0.1857,37.1,81,98,332768
1.8084,0.1906,37.07,81,98,332771
1.7889,0.1857,36.37,81,98,332774
1.8377,0.1955,36.79,81,98,332778
1.8084,0.1857,37.34,81,98,332781
1.8231,0.1906,37.1,81,98,332784
1.8328,0.1906,37.13,81,98,332788
1.8328,0.1857,37.16,81,98,332791
1.8964,0.2053,36.95,81,98,332794
1.8426,0.1906,37.04,81,98,332798
1.8524,0.1955,37.01,81,98,332802
1.8622,0.1906,37.19,81,98,332805
1.8719,0.1857,37.16,81,98,332808
1.9404,0.1955,36.95,81,98,332812
1.8866,0.1906,37.13,81,98,332815
1.9062,0.1906,37.01,81,98,332818
1.8915,0.1857,37.13,81,98,332822
1.9062,0.1857,37.16,81,98,332825
1.9404,0.1906,37.07,81,98,332828
1.9306,0.1906,37.1,81,98,332832
1.9599,0.1906,36.98,81,98,332835
1.9257,0.1955,36.88,81,98,332838
1.9746,0.1808,37.07,81,98,332843
1.9892,0.1857,37.16,81,98,332846
2.0088,0.1906,37.1,81,98,332850
2.0137,0.1857,37.16,81,98,332853
2.0821,0.1955,36.82,81,98,332856
2.0528,0.1906,36.88,81,98,332859
2.0479,0.1808,37.13,81,98,332863
2.0626,0.1906,37.1,81,98,332866
2.0968,0.1857,37.13,81,98,332869
2.1408,0.2053,36.79,81,98,332873
2.1017,0.2004,37.01,81,98,332876
2.1017,0.1857,37.04,81,98,332879
2.0821,0.1906,37.16,81,98,332883
2.0723,0.1857,37.13,81,98,332887
2.1212,0.1955,37.01,81,98,332890
2.0968,0.1906,37.1,81,98,332893
2.0968,0.1857,36.98,81,98,332897
2.0528,0.1857,37.1,81,98,332900
2.0332,0.1857,37.13,81,98,332903
2.0381,0.2151,37.04,81,98,332907
1.9941,0.1906,37.1,81,98,332910
2.0137,0.1906,36.95,81,98,332913
1.955,0.1857,37.13,81,98,332917
1.9306,0.1857,37.13,81,98,332920
1.9208,0.1955,37.01,81,98,332923
1.8622,0.1857,37.13,81,98,332928
1.8622,0.1906,36.91,81,98,332931
1.8475,0.1711,37.07,81,98,332934
1.7889,0.1857,37.13,81,98,332937
1.7889,0.1906,37.01,81,98,332941
1.7253,0.1857,37.13,81,98,332944
1.7546,0.2248,36.82,81,98,332947
1.7058,0.1808,37.07,81,98,332951
1.7107,0.1857,37.13,81,98,332954
1.7155,0.1906,37.1,81,98,332957
1.7009,0.1711,37.13,81,98,332961
1.7302,0.2004,36.79,81,98,332964
1.6911,0.1955,36.98,81,98,332967
1.6911,0.1808,37.1,81,98,332972
1.696,0.1906,37.16,81,98,332975
1.6911,0.1857,37.19,81,98,332978
1.74,0.2053,36.95,81,98,332981
1.7058,0.1906,37.01,81,98,332985
1.7107,0.2004,37.07,81,98,332988
1.7107,0.1857,37.1,81,98,332991
1.7204,0.1857,37.16,81,98,332995
1.7595,0.1955,36.91,81,98,332998
1.7302,0.1906,37.16,81,98,333001
1.7449,0.1955,36.98,81,98,333005
1.7253,0.1955,37.13,81,98,333008
1.74,0.1857,37.1,81,98,333011
1.7742,0.1955,37.04,81,98,333016
1.7595,0.1906,37.1,81,98,333019
1.7693,0.1906,37.01,81,98,333022
1.7302,0.1857,37.1,81,98,333025
1.7498,0.1857,37.19,81,98,333029
1.7693,0.1906,36.95,81,98,333032
1.7644,0.1955,37.13,81,98,333035
1.8035,0.1906,36.85,81,98,333039
1.7742,0.1857,37.13,81,98,333042
1.784,0.1857,37.13,81,98,333045
1.8182,0.1906,37.04,81,98,333049
1.8182,0.1857,37.13,81,98,333052
1.8671,0.1955,36.82,81,98,333056
1.8328,0.2004,37.01,81,98,333060
1.8133,0.1857,37.13,81,98,333063
1.8133,0.1906,37.04,81,98,333066
1.7986,0.1808,37.1,81,98,333069
1.8524,0.1906,36.85,81,98,333073
1.8133,0.1906,36.98,81,98,333076
1.8182,0.1857,37.07,81,98,333079
1.7937,0.1906,37.13,81,98,333083
1.7889,0.1857,37.1,81,98,333086
1.8622,0.2053,36.98,81,98,333089
1.8133,0.1906,37.25,81,98,333093
1.8133,0.1857,37.01,81,98,333096
1.7889,0.1906,37.1,81,98,333100
1.7742,0.1857,36.67,81,98,333103
1.7889,0.1955,37.04,81,98,333107
1.784,0.1906,37.1,81,98,333110
1.8035,0.1906,36.95,81,98,333113
1.7791,0.1857,37.1,81,98,333117
1.7791,0.1857,37.16,81,98,333120
1.7986,0.2297,36.95,81,98,333123
1.7742,0.1906,37.13,81,98,333127
1.8084,0.1857,36.91,81,98,333130
1.7937,0.1857,37.07,81,98,333133
1.7937,0.1857,37.13,81,98,333137
1.8035,0.1955,37.01,81,98,333140
1.7742,0.1857,37.13,81,98,333144
1.8133,0.1906,36.85,81,98,333148
1.7693,0.1906,37.13,81,98,333151
1.7791,0.1857,37.13,81,98,333154
1.8035,0.1955,37.1,81,98,333157
1.7693,0.1857,37.13,81,98,333161
1.8182,0.1955,36.76,81,98,333164
1.784,0.1857,37.01,81,98,333167
1.784,0.1808,37.22,81,98,333171
1.784,0.1808,37.1,81,98,333174
1.7791,0.1857,37.13,81,98,333177
1.8231,0.2297,36.91,81,98,333181
1.7742,0.1906,37.07,81,98,333185
1.7791,0.1857,36.95,81,98,333188
1.7742,0.1906,37.1,81,98,333192
1.784,0.1857,37.13,81,98,333195
1.8084,0.1906,36.95,81,98,333198
1.784,0.1906,37.28,81,98,333202
1.7986,0.1906,37.01,81,98,333205
1.7742,0.1808,37.16,81,98,333208
1.784,0.1857,37.1,81,98,333211
1.8084,0.1906,37.04,81,98,333215
1.8035,0.1808,37.1,81,98,333218
1.8133,0.1955,36.98,81,98,333221
1.7742,0.1857,37.13,81,98,333225
1.784,0.1857,37.13,81,98,333229
1.8084,0.1906,37.04,81,98,333232
1.7986,0.1906,37.13,81,98,333236
1.8231,0.1955,36.91,81,98,333239
1.7889,0.1857,37.13,81,98,333242
1.7937,0.1857,37.19,81,98,333245
1.8133,0.1955,37.19,81,98,333249
1.8084,0.1711,37.13,81,98,333252
1.8622,0.1955,36.76,81,98,333255
1.8377,0.1955,37.01,81,98,333259
1.8377,0.1857,37.22,81,98,333262
1.8719,0.2004,37.1,81,98,333265
1.8622,0.1857,37.13,81,98,333270
1.9355,0.2053,36.85,81,98,333273
1.9062,0.1955,37.01,81,98,333276
1.9013,0.1857,37.13,81,98,333280
1.9013,0.1955,37.1,81,98,333283
1.911,0.1857,37.13,81,98,333286
1.955,0.2004,37.04,81,98,333290
1.9404,0.2004,37.07,81,98,333293
1.9599,0.2053,37.01,81,98,333296
1.9355,0.1906,37.1,81,98,333299
1.9453,0.1955,37.1,81,98,333303
1.9746,0.1906,37.07,81,98,333306
1.9501,0.1906,37.1,81,98,333309
1.9697,0.2004,36.95,81,98,333314
1.9159,0.1857,36.85,81,98,333317
1.8915,0.1955,37.1,81,98,333320
1.8866,0.2053,36.98,81,98,333324
1.8377,0.1906,37.04,81,98,333327
1.8377,0.176,36.91,81,98,333330
1.7986,0.1857,37.07,81,98,333334
1.7742,0.1906,37.07,81,98,333337
1.7644,0.2004,37.04,81,98,333340
1.7302,0.1906,37.13,81,98,333343
1.7595,0.1906,36.85,81,98,333347
1.7204,0.1906,37.1,81,98,333350
1.7351,0.1857,37.13,81,98,333353
1.7449,0.2004,37.04,81,98,333358
1.7204,0.1906,37.13,81,98,333361
1.7595,0.1955,36.82,81,98,333364
1.7253,0.1955,37.01,81,98,333368
1.7351,0.1808,37.1,81,98,333371
1.7449,0.1906,37.01,81,98,333374
1.7498,0.1857,37.13,81,98,333377
1.8035,0.2053,36.88,81,98,333381
1.7546,0.1955,37.07,81,98,333384
1.7595,0.1711,37.04,81,98,333387
1.7498,0.1955,37.13,81,98,333391
1.7595,0.1857,37.13,81,98,333394
1.7937,0.2004,36.91,81,98,333398
1.7742,0.1906,37.07,81,98,333402
1.8182,0.1906,36.95,81,98,333405
1.8817,0.1906,37.16,81,98,333408
1.9648,0.1857,37.1,81,98,333412
2.1408,0.1955,37.01,81,98,333415
2.3265,0.1906,37.1,81,98,333418
2.61,0.1906,36.98,81,98,333422
2.8201,0.1857,37.1,81,98,333425
3.0645,0.1808,37.1,81,98,333428
3.2796,0.1955,36.95,81,98,333431
3.2845,0.1906,37.19,81,98,333435
3.1769,0.1906,36.91,81,98,333438
2.825,0.1906,36.91,81,98,333442
2.478,0.1857,37.04,81,98,333446
2.1505,0.1955,37.07,81,98,333449
1.1975,0.1857,37.1,81,98,333453
1.1877,0.1906,37.13,81,98,333456
1.2366,0.2053,36.88,81,98,333459
1.2463,0.2004,37.04,81,98,333463
1.3294,0.1857,37.04,81,98,333466
1.3685,0.1906,37.13,81,98,333469
1.437,0.1857,37.34,81,98,333472
1.5347,0.2053,37.01,81,98,333476
1.5738,0.1906,37.07,81,98,333479
1.6227,0.1906,36.95,81,98,333483
1.6325,0.1955,37.1,81,98,333487
1.6569,0.1857,37.13,81,98,333490
1.696,0.1857,37.07,81,98,333493
1.7009,0.1906,37.13,81,98,333497
1.7498,0.1955,36.98,81,98,333500
1.7351,0.1711,37.13,81,98,333503
1.7449,0.1857,37.1,81,98,333507
1.7742,0.1955,37.07,81,98,333510
1.7546,0.1906,37.01,81,98,333513
1.7986,0.2004,36.88,81,98,333516
1.7937,0.1906,36.98,81,98,333520
1.7937,0.1857,37.16,81,98,333523
1.8084,0.1955,37.04,81,98,333527
1.7937,0.1955,37.13,81,98,333531
1.8377,0.1955,36.76,81,98,333534
1.8084,0.1857,37.07,81,98,333537
1.8182,0.1857,37.1,81,98,333541
1.8328,0.1955,37.07,81,98,333544
1.828,0.1906,37.1,81,98,333547
1.8768,0.2004,36.82,81,98,333551
1.8475,0.1906,36.95,81,98,333554
1.8524,0.1857,37.1,81,98,333557
1.8671,0.1906,37.25,81,98,333560
1.9062,0.1808,37.1,81,98,333564
1.9257,0.1906,36.95,81,98,333568
1.8866,0.1906,37.07,81,98,333571
1.9013,0.1857,37.04,81,98,333575
1.8964,0.1906,37.13,81,98,333578
1.9062,0.1857,37.07,81,98,333581
1.9453,0.1955,36.91,81,98,333585
1.9159,0.1906,37.13,81,98,333588
1.9697,0.1955,36.95,81,98,333591
1.9257,0.1906,37.13,81,98,333595
1.9404,0.1857,37.1,81,98,333598
2.0039,0.1955,37.01,81,98,333601
1.9599,0.1906,37.13,81,98,333604
2.0088,0.1857,36.98,81,98,333608
1.9795,0.1906,37.13,81,98,333612
1.999,0.1906,37.13,81,98,333615
2.0332,0.1906,36.49,81,98,333619
2.0235,0.1955,37.1,81,98,333622
2.0626,0.1857,36.88,81,98,333625
2.0283,0.1857,37.16,81,98,333629
2.0381,0.1857,37.16,81,98,333632
2.0626,0.1955,37.07,81,98,333635
2.0626,0.1906,37.19,81,98,333638
2.1212,0.2199,36.82,81,98,333642
2.087,0.1906,37.04,81,98,333645
2.0674,0.1857,37.13,81,98,333648
2.0772,0.1955,37.07,81,98,333652
2.087,0.1857,37.1,81,98,333656
2.131,0.2053,36.88,81,98,333659
2.0772,0.2004,36.98,81,98,333663
2.0528,0.1857,37.1,81,98,333666
2.043,0.1906,37.1,81,98,333669
2.0137,0.1857,37.19,81,98,333672
2.0577,0.2053,36.98,81,98,333676
2.0039,0.1955,37.1,81,98,333679
1.9746,0.1857,37.01,81,98,333682
1.9257,0.1906,37.34,81,98,333686
1.9062,0.1808,37.13,81,98,333689
1.8866,0.2004,37.01,81,98,333692
1.8377,0.1857,37.04,81,98,333697
1.8328,0.1955,36.91,81,98,333700
1.7889,0.1906,37.04,81,98,333703
