1.74,0.1711,39.06,76,97,95594
1.7253,0.1662,39,76,97,95598
1.7693,0.1857,38.74,76,97,95601
1.7351,0.1613,38.93,76,97,95604
1.7009,0.1857,39.06,76,97,95607
1.6911,0.1662,39,76,97,95611
1.6764,0.1662,38.96,76,97,95614
1.7155,0.1857,38.74,76,97,95618
1.6716,0.1662,38.93,76,97,95621
1.6667,0.1564,38.93,76,97,95625
1.6764,0.1515,38.96,76,97,95628
1.6764,0.1515,39,76,97,95631
1.74,0.1857,38.74,76,97,95634
1.6862,0.1711,38.84,76,97,95638
1.6813,0.1613,38.96,76,97,95641
1.6862,0.1662,39.06,76,97,95644
1.7009,0.1564,39.03,76,97,95647
1.7204,0.1857,38.74,76,97,95651
1.6716,0.1662,39,76,97,95654
1.6569,0.1515,38.96,76,97,95657
1.7253,0.1613,39,76,97,95661
1.7595,0.1613,39,76,97,95665
1.9013,0.1808,38.74,76,97,95668
1.9697,0.1662,38.84,76,97,95671
2.0919,0.1613,38.96,76,97,95674
2.2532,0.1662,38.96,76,97,95678
2.434,0.1662,38.96,76,97,95681
2.6491,0.1808,38.71,76,97,95684
2.5953,0.1955,38.93,76,97,95687
2.4438,0.1613,39.03,76,97,95691
2.2581,0.1711,39.16,76,97,95694
2.0528,0.1662,39,76,97,95697
1.9355,0.1808,38.81,76,97,95700
1.784,0.1808,38.93,76,97,95705
1.7155,0.1613,39.06,76,97,95708
1.6764,0.1662,38.96,76,97,95711
1.6569,0.1662,39,76,97,95714
1.6911,0.176,38.08,76,97,95718
1.6422,0.1662,38.96,76,97,95721
1.6325,0.1613,39,76,97,95724
1.6276,0.1711,38.96,76,97,95727
1.6129,0.1662,38.96,76,97,95731
1.652,0.1857,38.81,76,97,95734
1.6227,0.1711,39.25,76,97,95737
1.6129,0.1515,39,76,97,95740
1.6227,0.1515,38.96,76,97,95745
1.6325,0.1613,39,76,97,95748
1.6667,0.1808,38.74,76,97,95751
1.6325,0.1662,38.9,76,97,95754
1.6276,0.1613,39,76,97,95758
1.6325,0.1662,38.96,76,97,95761
1.6373,0.1857,39,76,97,95764
1.6911,0.176,38.68,76,97,95767
1.6569,0.1662,38.96,76,97,95771
1.6618,0.1613,39,76,97,95774
1.6716,0.1711,38.96,76,97,95777
1.6764,0.1711,39,76,97,95780
1.7302,0.176,38.71,76,97,95784
1.7009,0.1613,38.93,76,97,95788
1.696,0.1613,38.96,76,97,95791
1.7058,0.1662,38.9,76,97,95794
1.7009,0.1613,39,76,97,95798
1.7498,0.1857,38.71,76,97,95801
1.7253,0.176,38.9,76,97,95804
1.7253,0.1613,39.03,76,97,95807
1.7253,0.1662,39,76,97,95811
1.7253,0.176,39,76,97,95814
1.7742,0.176,38.4,76,97,95817
1.7351,0.1662,38.96,76,97,95820
1.74,0.1613,39.03,76,97,95824
1.7595,0.1662,38.93,76,97,95827
1.7546,0.1711,39.06,76,97,95831
1.8035,0.176,38.81,76,97,95834
1.7791,0.1711,38.9,76,97,95838
1.7693,0.1613,39,76,97,95841
1.7986,0.1613,38.96,76,97,95844
1.7889,0.1662,39.03,76,97,95847
1.8426,0.176,38.74,76,97,95851
1.8133,0.1662,38.93,76,97,95854
1.8084,0.1613,39.03,76,97,95857
1.8231,0.1906,38.96,76,97,95860
1.828,0.1662,39.06,76,97,95864
1.8768,0.1711,38.71,76,97,95867
1.8377,0.1662,38.96,76,97,95870
1.8426,0.1711,39,76,97,95874
1.8622,0.1711,39.19,76,97,95878
1.8671,0.1711,39,76,97,95881
1.9306,0.1808,38.71,76,97,95884
1.911,0.1711,38.93,76,97,95887
1.9062,0.1613,39,76,97,95891
1.9208,0.1955,38.96,76,97,95894
1.9159,0.1662,39.16,76,97,95897
1.9746,0.176,38.71,76,97,95901
1.9501,0.1662,38.9,76,97,95904
1.955,0.1613,39,76,97,95907
1.9599,0.1613,38.96,76,97,95910
1.9599,0.1662,39,76,97,95915
2.0186,0.176,38.71,76,97,95918
1.9844,0.1613,38.96,76,97,95921
1.9892,0.1711,39,76,97,95924
2.0088,0.1711,38.96,76,97,95928
1.9941,0.1662,39,76,97,95931
2.0381,0.1711,38.74,76,97,95934
2.0088,0.1711,38.9,76,97,95937
1.999,0.1613,39,76,97,95940
2.0137,0.176,38.96,76,97,95944
1.9892,0.1662,38.96,76,97,95947
2.0235,0.176,38.77,76,97,95950
1.9697,0.1662,38.93,76,97,95953
1.9306,0.1662,39,76,97,95958
1.9208,0.1662,39,76,97,95961
1.8915,0.1613,39,76,97,95964
1.9062,0.1662,38.74,76,97,95967
1.8328,0.1662,39,76,97,95971
1.8035,0.1613,39,76,97,95974
1.7986,0.1711,38.93,76,97,95977
1.7546,0.1613,39,76,97,95980
1.7742,0.1808,38.71,76,97,95984
1.7302,0.1662,38.9,76,97,95987
1.6911,0.1613,39,76,97,95990
1.7058,0.1711,38.96,76,97,95993
1.6569,0.1564,39,76,97,95997
1.6911,0.1711,38.74,76,97,96001
1.6569,0.1515,38.93,76,97,96004
1.6471,0.1662,39,76,97,96007
1.6471,0.1711,38.96,76,97,96011
1.6325,0.1662,39,76,97,96014
1.6618,0.176,38.77,76,97,96017
1.6276,0.1613,39,76,97,96020
1.6422,0.1613,39.19,76,97,96024
1.6667,0.176,39.16,76,97,96027
1.6471,0.1662,39.03,76,97,96030
1.6813,0.1711,38.74,76,97,96033
1.6667,0.1711,38.9,76,97,96037
1.6569,0.1857,39.03,76,97,96040
1.6764,0.1711,39,76,97,96044
1.6667,0.1662,39,76,97,96047
1.7107,0.176,38.74,76,97,96051
1.6813,0.2053,38.9,76,97,96054
1.6813,0.1613,39,76,97,96057
1.7204,0.1711,38.93,76,97,96060
1.6862,0.1613,39,76,97,96064
1.7253,0.1711,38.77,76,97,96067
1.696,0.1662,39,76,97,96070
1.7107,0.1662,39,76,97,96073
1.7155,0.1857,38.9,76,97,96077
1.7302,0.1662,39.03,76,97,96080
1.7253,0.1662,39,76,97,96084
1.784,0.176,38.81,76,97,96088
1.7546,0.1662,39.03,76,97,96091
1.7498,0.1613,39,76,97,96094
1.7449,0.1662,39.06,76,97,96098
1.74,0.1662,39,76,97,96101
1.784,0.1857,38.68,76,97,96104
1.7449,0.1613,38.96,76,97,96107
1.7498,0.1564,39,76,97,96111
1.7644,0.1711,38.9,76,97,96114
1.7498,0.1662,38.3,76,97,96117
1.7937,0.1711,38.68,76,97,96120
1.7595,0.1808,38.93,76,97,96124
1.7449,0.1662,38.3,76,97,96128
1.7546,0.1613,39.09,76,97,96131
1.7449,0.1613,39,76,97,96134
1.7937,0.1662,38.74,76,97,96138
1.7546,0.1857,38.9,76,97,96141
1.7498,0.1613,39.03,76,97,96144
1.7595,0.1711,39.03,76,97,96147
1.7791,0.1662,39.03,76,97,96151
1.8035,0.1808,38.68,76,97,96154
1.7595,0.1662,38.93,76,97,96157
1.7546,0.1613,39.03,76,97,96160
1.7791,0.176,38.93,76,97,96164
1.7889,0.1662,39.03,76,97,96167
1.8133,0.176,38.71,76,97,96171
1.784,0.1711,38.9,76,97,96174
1.7693,0.1613,39.03,76,97,96178
1.7693,0.1711,38.96,76,97,96181
1.7595,0.1662,39,76,97,96184
1.8133,0.176,37.99,76,97,96187
1.7791,0.1662,38.93,76,97,96191
1.7693,0.1613,39.03,76,97,96194
1.7742,0.1711,38.96,76,97,96197
1.7595,0.1662,38.84,76,97,96200
1.8084,0.176,38.74,76,97,96204
1.7644,0.1662,38.96,76,97,96207
1.7791,0.1662,39,76,97,96210
1.7986,0.176,39,76,97,96214
1.784,0.1662,38.27,76,97,96218
1.828,0.176,38.74,76,97,96221
1.7937,0.176,38.9,76,97,96224
1.7889,0.1662,39.06,76,97,96227
1.7937,0.1711,39,76,97,96231
1.7937,0.1662,39,76,97,96234
1.8328,0.1808,38.71,76,97,96237
1.8035,0.1662,39,76,97,96240
1.7889,0.1613,39,76,97,96244
1.8035,0.1711,38.96,76,97,96247
1.7937,0.1662,39,76,97,96250
1.8377,0.1515,38.74,76,97,96253
1.7937,0.1613,39,76,97,96258
1.7889,0.1662,39,76,97,96261
1.7986,0.1711,38.33,76,97,96264
1.7889,0.1662,38.96,76,97,96267
1.8328,0.1515,38.74,76,97,96271
1.7986,0.1711,38.93,76,97,96274
1.7937,0.1662,38.96,76,97,96277
1.8035,0.1711,39,76,97,96280
1.7986,0.1662,39.03,76,97,96284
1.8377,0.176,38.71,76,97,96287
1.828,0.1613,38.9,76,97,96290
1.7986,0.1662,39.06,76,97,96293
1.8035,0.1515,38.96,76,97,96297
1.784,0.176,39.03,76,97,96301
1.8328,0.1711,38.71,76,97,96304
1.8035,0.1613,38.96,76,97,96307
1.8182,0.1515,39.03,76,97,96311
1.8475,0.176,38.96,76,97,96314
1.8328,0.1662,38.96,76,97,96317
1.8964,0.1662,38.81,76,97,96320
1.8817,0.1711,38.9,76,97,96324
1.8768,0.1662,39,76,97,96327
1.9013,0.1711,38.96,76,97,96330
1.8915,0.1564,39.03,76,97,96333
1.9404,0.1711,38.87,76,97,96337
1.911,0.1711,39,76,97,96340
1.9013,0.1662,39,76,97,96344
1.9257,0.1662,39,76,97,96347
1.9257,0.1662,39.06,76,97,96351
1.9941,0.1711,38.77,76,97,96354
1.9404,0.1613,38.96,76,97,96357
1.9501,0.1711,38.96,76,97,96360
1.9648,0.1711,38.96,76,97,96364
1.9404,0.1857,39.03,76,97,96367
1.9697,0.176,38.84,76,97,96370
1.9208,0.1711,38.93,76,97,96373
1.8866,0.1613,39,76,97,96377
1.8768,0.176,38.93,76,97,96380
1.8377,0.1662,39.12,76,97,96384
1.8719,0.1711,38.77,76,97,96387
1.8377,0.1711,38.9,76,97,96391
1.8231,0.1955,39,76,97,96394
1.8182,0.1711,39,76,97,96397
1.7986,0.1662,39,76,97,96400
1.8182,0.1711,38.71,76,97,96404
1.7693,0.1808,38.96,76,97,96407
1.7644,0.1515,39,76,97,96410
1.7742,0.1711,38.93,76,97,96413
1.7449,0.1662,39,76,97,96417
1.7791,0.1857,38.74,76,97,96420
1.7546,0.1711,38.77,76,97,96423
1.7498,0.1613,39,76,97,96427
1.7644,0.176,38.9,76,97,96431
1.7546,0.1711,39,76,97,96434
1.7889,0.1711,38.77,76,97,96437
1.7644,0.1711,38.93,76,97,96440
1.7546,0.1662,39,76,97,96444
1.7595,0.1662,39,76,97,96447
1.7449,0.1662,39.03,76,97,96450
1.8035,0.1711,38.81,76,97,96453
1.7595,0.1613,39.03,76,97,96457
1.8035,0.1613,38.96,76,97,96460
1.8915,0.1808,38.96,76,97,96463
1.9795,0.1662,39,76,97,96466
2.1505,0.1711,38.81,76,97,96471
2.263,0.1808,38.9,76,97,96474
2.4145,0.1613,39,76,97,96477
2.61,0.1711,38.9,76,97,96480
2.6588,0.1662,39,76,97,96484
2.6393,0.1711,38.81,76,97,96487
2.4438,0.1662,38.9,76,97,96490
2.2434,0.1857,38.96,76,97,96493
2.0674,0.1711,38.93,76,97,96496
1.9257,0.1662,39,76,97,96500
1.8573,0.176,38.77,76,97,96503
1.784,0.1564,38.96,76,97,96506
1.7595,0.1662,39,76,97,96509
1.7693,0.1711,38.9,76,97,96514
1.7351,0.1662,39,76,97,96517
1.74,0.1662,38.77,76,97,96520
1.7058,0.1662,38.93,76,97,96523
1.6911,0.1662,39,76,97,96527
1.7058,0.176,38.9,76,97,96530
1.6862,0.1662,39,76,97,96533
1.7351,0.1711,38.81,76,97,96536
1.6911,0.1613,38.96,76,97,96540
1.6862,0.1613,39,76,97,96543
1.7009,0.1711,38.93,76,97,96546
1.7058,0.176,38.96,76,97,96549
1.7253,0.1662,38.81,76,97,96553
1.7107,0.1711,39,76,97,96557
1.7155,0.1662,39.09,76,97,96560
1.7449,0.176,38.93,76,97,96563
1.74,0.1613,39,76,97,96567
1.7693,0.1662,38.77,76,97,96570
1.7595,0.1515,38.93,76,97,96573
1.7889,0.1613,39,76,97,96576
1.7791,0.1711,38.93,76,97,96580
1.7644,0.1857,38.96,76,97,96583
1.7937,0.1662,39,76,97,96586
1.7791,0.1613,38.93,76,97,96589
1.7889,0.1662,39,76,97,96593
1.8035,0.1808,39,76,97,96596
1.7986,0.1662,39,76,97,96600
1.828,0.2053,38.84,76,97,96603
1.8084,0.1662,39.03,76,97,96607
1.8182,0.1662,38.96,76,97,96610
1.8475,0.176,38.87,76,97,96613
1.8182,0.1662,39,76,97,96616
1.8377,0.176,38.84,76,97,96620
1.8133,0.1613,38.96,76,97,96623
1.8231,0.1662,39.03,76,97,96626
1.8573,0.1711,38.93,76,97,96629
1.8475,0.1662,38.96,76,97,96633
1.8768,0.1662,38.87,76,97,96636
1.8524,0.1955,38.96,76,97,96640
1.8622,0.1662,39.06,76,97,96643
1.8817,0.1711,38.93,76,97,96647
1.8817,0.1662,39,76,97,96650
1.9013,0.1662,38.87,76,97,96653
1.8768,0.1662,38.96,76,97,96656
1.8817,0.1662,39,76,97,96660
1.9159,0.1808,38.9,76,97,96663
1.9013,0.1613,39,76,97,96666
1.9501,0.1662,38.93,76,97,96669
1.9355,0.1564,38.93,76,97,96673
1.9404,0.1857,39.03,76,97,96676
1.9697,0.1711,38.87,76,97,96679
1.9501,0.1515,39,76,97,96683
1.9892,0.1662,38.87,76,97,96687
1.9746,0.1613,38.77,76,97,96690
2.0283,0.1564,39,76,97,96695
2.0479,0.1613,39.12,76,97,96698
2.0772,0.176,38.93,76,97,96701
2.0723,0.1662,39,76,97,96704
2.0968,0.1711,38.77,76,97,96708
2.0723,0.1662,38.87,76,97,96711
2.0626,0.1711,39,76,97,96714
2.0821,0.176,38.9,76,97,96717
2.0723,0.1662,39,76,97,96720
2.1017,0.1662,38.81,76,97,96724
2.0674,0.1857,38.9,76,97,96728
2.0577,0.1515,39,76,97,96731
2.0626,0.176,38.9,76,97,96734
2.0479,0.1662,39,76,97,96738
2.0626,0.1955,38.84,76,97,96741
2.0137,0.1662,38.96,76,97,96744
1.9892,0.1662,39.03,76,97,96747
1.9795,0.1711,38.93,76,97,96751
1.9306,0.1662,39,76,97,96754
1.9257,0.1906,38.77,76,97,96757
1.8768,0.1662,38.9,76,97,96760
1.8475,0.1613,39,76,97,96764
1.8328,0.176,38.9,76,97,96768
1.7889,0.1662,39.03,76,97,96771
1.7937,0.1662,38.84,76,97,96774
1.7595,0.176,38.93,76,97,96778
1.74,0.1662,39,76,97,96781
1.7351,0.1711,38.87,76,97,96784
1.7204,0.1662,39,76,97,96787
1.7351,0.176,38.87,76,97,96791
1.7107,0.1613,38.96,76,97,96794
1.7107,0.1662,39.06,76,97,96797
1.7351,0.176,38.87,76,97,96800
1.7107,0.1662,39,76,97,96804
1.7253,0.1613,38.87,76,97,96807
1.7009,0.1662,38.84,76,97,96811
1.7058,0.1515,39,76,97,96814
1.7351,0.1711,38.93,76,97,96818
1.7302,0.1662,39.03,76,97,96821
1.7595,0.1662,38.87,76,97,96824
1.74,0.1613,39.09,76,97,96827
1.74,0.1662,39,76,97,96831
1.7546,0.176,39.06,76,97,96834
1.7546,0.1662,38.96,76,97,96837
1.7937,0.1662,38.93,76,97,96840
1.7595,0.1613,39,76,97,96844
1.7644,0.1906,38.96,76,97,96847
1.7937,0.176,38.93,76,97,96850
1.7791,0.1662,38.84,76,97,96854
1.8035,0.1613,38.93,76,97,96858
1.784,0.2151,39,76,97,96861
1.7889,0.1515,39.03,76,97,96864
1.8084,0.176,38.9,76,97,96867
1.7889,0.1662,39,76,97,96871
1.8182,0.1662,38.84,76,97,96874
1.7937,0.1613,38.96,76,97,96877
1.7986,0.1515,39.03,76,97,96880
1.8133,0.1711,38.93,76,97,96884
1.8084,0.1662,39.06,76,97,96887
1.8328,0.1711,38.9,76,97,96890
1.8084,0.1662,39,76,97,96893
1.828,0.1613,39,76,97,96898
1.8524,0.176,39.03,76,97,96901
1.8231,0.1662,38.9,76,97,96904
1.8426,0.1515,38.9,76,97,96907
1.8133,0.1564,38.96,76,97,96911
1.8182,0.1662,38.96,76,97,96914
1.8524,0.1711,38.15,76,97,96917
1.8377,0.1662,38.96,76,97,96920
1.8622,0.176,38.87,76,97,96924
1.828,0.1662,39.09,76,97,96927
1.828,0.1662,39.06,76,97,96930
1.8426,0.1515,38.93,76,97,96933
1.8719,0.1711,39,76,97,96937
1.8622,0.176,38.87,76,97,96941
1.8328,0.2102,39.09,76,97,96944
1.828,0.1662,39,76,97,96947
1.8573,0.2004,38.87,76,97,96951
1.8328,0.1662,38.96,76,97,96954
1.8573,0.176,38.9,76,97,96957
1.8377,0.1662,39,76,97,96960
1.8328,0.1711,39,76,97,96964
1.8573,0.176,38.87,76,97,96967
1.8328,0.1662,38.96,76,97,96970
1.8964,0.1711,38.87,76,97,96973
1.8475,0.1662,39,76,97,96977
1.8475,0.1662,39.03,76,97,96980
1.8622,0.1515,38.96,76,97,96984
1.8377,0.1662,38.96,76,97,96987
1.8671,0.176,38.9,76,97,96991
1.8475,0.1662,38.96,76,97,96994
1.8524,0.1711,38.93,76,97,96997
1.8866,0.176,38.87,76,97,97000
1.8524,0.1662,39,76,97,97004
1.8719,0.176,38.9,76,97,97007
1.8426,0.1613,39.03,76,97,97010
1.8475,0.1662,39.09,76,97,97013
1.8817,0.1808,38.9,76,97,97017
1.8622,0.1662,39.06,76,97,97020
1.8866,0.1711,39.06,76,97,97024
1.8573,0.1662,39.03,76,97,97027
1.8573,0.1662,39,76,97,97031
1.8671,0.176,38.93,76,97,97034
1.8622,0.1662,38.93,76,97,97037
1.8866,0.1515,38.87,76,97,97040
1.8573,0.1662,39.06,76,97,97044
1.8622,0.1662,39,76,97,97047
1.8915,0.1906,38.87,76,97,97050
1.8622,0.1662,38.96,76,97,97053
1.8915,0.1711,38.15,76,97,97057
1.8622,0.1662,39.03,76,97,97060
1.8768,0.1613,38.93,76,97,97063
1.9355,0.176,38.87,76,97,97067
1.8768,0.1808,38.96,76,97,97071
1.8964,0.1711,38.84,76,97,97074
1.8866,0.1662,39,76,97,97077
1.8719,0.1564,39,76,97,97080
1.8866,0.176,39,76,97,97084
1.8719,0.1613,38.96,76,97,97087
1.8866,0.1662,38.84,76,97,97090
1.8622,0.1613,39.06,76,97,97093
1.8719,0.1662,39,76,97,97097
1.911,0.176,38.87,76,97,97100
1.8817,0.1662,39.03,76,97,97103
1.8915,0.1711,38.87,76,97,97106
1.8671,0.1955,39.03,76,97,97111
1.8768,0.1515,39,76,97,97114
1.9159,0.1711,38.84,76,97,97117
1.9208,0.1662,39,76,97,97120
1.9453,0.1711,38.77,76,97,97124
1.9306,0.1662,38.96,76,97,97127
1.9355,0.1662,39,76,97,97130
1.9648,0.1711,38.93,76,97,97133
1.955,0.1906,39.06,76,97,97137
1.9795,0.1711,38.9,76,97,97140
1.9599,0.1662,39,76,97,97143
1.9844,0.1662,39,76,97,97146
2.0088,0.1955,38.81,76,97,97150
1.9892,0.1711,39.19,76,97,97154
2.0235,0.1711,38.87,76,97,97157
2.0039,0.1662,39,76,97,97160
2.0039,0.1662,38.96,76,97,97164
2.0235,0.1515,38.84,76,97,97167
1.9795,0.1662,39,76,97,97170
1.9795,0.176,38.87,76,97,97173
1.9404,0.1662,39.12,76,97,97177
1.9306,0.1662,39,76,97,97180
1.9501,0.176,38.9,76,97,97183
1.9062,0.1711,38.87,76,97,97186
1.9159,0.1515,38.87,76,97,97190
1.8866,0.1515,39,76,97,97193
1.8768,0.1613,39,76,97,97197
1.9062,0.1808,38.87,76,97,97200
1.8671,0.1711,38.24,76,97,97204
1.8719,0.1711,38.87,76,97,97207
1.8475,0.1662,38.96,76,97,97210
1.828,0.1857,39,76,97,97213
1.8524,0.176,38.96,76,97,97217
1.8231,0.1662,39.06,76,97,97220
1.8377,0.1662,38.93,76,97,97223
1.8084,0.1662,39,76,97,97226
1.8084,0.2151,39,76,97,97230
1.8475,0.176,38.9,76,97,97233
1.8328,0.1613,38.96,76,97,97236
1.8524,0.176,38.87,76,97,97240
1.8377,0.176,39,76,97,97244
1.8328,0.1515,39,76,97,97247
1.8768,0.176,38.84,76,97,97250
1.8231,0.1711,39,76,97,97253
1.8524,0.1662,38.87,76,97,97257
1.8768,0.1662,38.36,76,97,97260
1.9501,0.1662,39,76,97,97263
2.0772,0.1808,38.84,76,97,97266
2.1701,0.1662,38.96,76,97,97270
2.3363,0.1662,38.87,76,97,97273
2.5024,0.1613,39,76,97,97276
2.6931,0.1662,38.96,76,97,97280
2.8201,0.1906,38.87,76,97,97284
2.7273,0.1711,38.96,76,97,97287
2.5758,0.1662,38.9,76,97,97290
2.346,0.1711,38.96,76,97,97293
2.1505,0.1662,39,76,97,97297
2.0332,0.1808,38.81,76,97,97300
1.784,0.1711,38.9,76,97,97304
1.7546,0.1662,39,76,97,97308
1.7742,0.1711,38.87,76,97,97311
1.7351,0.1662,39,76,97,97314
1.7351,0.1662,39.03,76,97,97317
1.7449,0.1711,38.93,76,97,97321
1.74,0.1662,38.96,76,97,97325
1.7644,0.2004,38.87,76,97,97328
1.74,0.1808,39.03,76,97,97331
1.7449,0.1662,39,76,97,97335
1.7742,0.176,38.84,76,97,97338
1.7546,0.176,38.96,76,97,97341
1.784,0.1711,38.93,76,97,97344
1.7644,0.1662,39.03,76,97,97348
1.7742,0.1613,39,76,97,97351
1.7986,0.1955,38.9,76,97,97354
1.7791,0.1662,39.03,76,97,97357
1.8035,0.176,38.87,76,97,97361
1.7889,0.1662,39,76,97,97364
1.7937,0.1662,38.96,76,97,97368
1.8182,0.1711,38.96,76,97,97371
1.8133,0.1662,38.96,76,97,97375
1.8328,0.176,38.87,76,97,97378
1.8133,0.1711,39,76,97,97381
1.8231,0.1662,39.22,76,97,97384
1.8671,0.1808,39,76,97,97388
1.8426,0.1662,38.96,76,97,97391
1.8671,0.176,38.9,76,97,97394
1.8426,0.1662,39.06,76,97,97397
1.8524,0.1662,38.96,76,97,97401
1.8915,0.1808,38.87,76,97,97404
1.8964,0.1662,39,76,97,97408
1.9013,0.1711,38.81,76,97,97411
1.8768,0.1662,39,76,97,97415
1.8719,0.1662,39,76,97,97418
1.9257,0.1808,38.93,76,97,97421
1.8866,0.1711,38.93,76,97,97424
1.9208,0.1711,38.87,76,97,97428
1.9013,0.1662,39.06,76,97,97431
1.9013,0.1662,39,76,97,97434
1.9453,0.176,38.87,76,97,97437
1.9257,0.1662,39,76,97,97441
1.9599,0.1711,38.87,76,97,97444
1.9453,0.1662,39,76,97,97447
1.9501,0.1662,39,76,97,97451
1.9844,0.176,38.77,76,97,97455
1.9648,0.1662,39,76,97,97458
1.9941,0.1662,38.84,76,97,97461
1.9844,0.1662,39,76,97,97464
1.9941,0.1662,38.93,76,97,97468
2.0235,0.176,38.93,76,97,97471
2.0137,0.1662,38.96,76,97,97474
2.0381,0.1711,38.87,76,97,97477
2.0283,0.1662,39.03,76,97,97481
2.0381,0.1662,39,76,97,97484
2.087,0.1808,38.81,76,97,97487
2.0626,0.1662,38.46,76,97,97490
2.087,0.1711,38.87,76,97,97495
2.0674,0.176,39,76,97,97498
2.0772,0.1662,39,76,97,97501
2.1212,0.176,38.87,76,97,97504
2.1017,0.1711,39,76,97,97508
2.1163,0.1711,38.9,76,97,97511
2.0919,0.1662,39,76,97,97514
2.1114,0.1662,39,76,97,97517
2.1212,0.1808,38.81,76,97,97521
2.1017,0.1711,38.96,76,97,97524
2.1163,0.1662,38.9,76,97,97527
2.0821,0.176,38.96,76,97,97530
2.0772,0.1662,38.9,76,97,97534
2.1114,0.1808,38.81,76,97,97538
2.0577,0.1711,38.96,76,97,97541
2.0528,0.1711,38.9,76,97,97544
2.0186,0.1662,39,76,97,97548
2.0235,0.1613,39,76,97,97551
1.999,0.176,38.87,76,97,97554
1.9404,0.1711,39,76,97,97557
1.9208,0.1955,38.9,76,97,97560
1.8866,0.1711,39.12,76,97,97564
1.8622,0.1662,39.09,76,97,97567
1.8719,0.1808,38.87,76,97,97570
1.8231,0.1906,38.96,76,97,97573
1.7937,0.1662,38.9,76,97,97577
1.7742,0.1662,39,76,97,97581
1.7742,0.1613,39,76,97,97584
1.7986,0.1808,38.81,76,97,97587
1.7595,0.1711,38.9,76,97,97591
1.7498,0.1662,38.9,76,97,97594
1.7351,0.1613,39,76,97,97597
1.7351,0.1662,39.12,76,97,97600
1.7791,0.1857,38.87,76,97,97604
1.7498,0.1711,38.96,76,97,97607
1.7498,0.1613,38.93,76,97,97610
1.7449,0.1711,39,76,97,97613
1.7449,0.1662,38.93,76,97,97617
1.7986,0.1857,38.84,76,97,97620
1.7791,0.1711,38.93,76,97,97624
1.7791,0.176,38.9,76,97,97627
1.7791,0.1906,39,76,97,97631
1.7791,0.1662,39,76,97,97634
1.8377,0.1857,38.81,76,97,97637
1.8035,0.1808,38.96,76,97,97640
1.8035,0.1662,39,76,97,97644
1.7986,0.1662,39,76,97,97647
1.8084,0.1662,39.03,76,97,97650
1.8622,0.1857,38.84,76,97,97653
1.8182,0.1711,38.96,76,97,97657
1.8182,0.1613,38.9,76,97,97660
1.8133,0.1662,38.96,76,97,97664
1.8133,0.1711,39.03,76,97,97667
1.8671,0.1857,39.19,76,97,97671
1.8377,0.176,38.93,76,97,97674
1.8524,0.1613,38.9,76,97,97677
1.828,0.1711,39,76,97,97680
1.8377,0.1662,38.96,76,97,97684
1.8915,0.1857,38.81,76,97,97687
1.8475,0.1711,38.93,76,97,97690
1.8377,0.1662,38.93,76,97,97693
1.828,0.1711,39,76,97,97697
1.828,0.1662,39.09,76,97,97700
1.8915,0.1711,38.81,76,97,97703
1.8768,0.1711,38.96,76,97,97707
1.8475,0.1857,38.9,76,97,97711
1.8524,0.1711,38.96,76,97,97714
1.8426,0.1662,39.06,76,97,97717
1.9159,0.1906,38.84,76,97,97720
1.8622,0.176,38.87,76,97,97724
1.8524,0.1613,38.93,76,97,97727
1.8573,0.1711,39,76,97,97730
1.8475,0.1662,39,76,97,97733
1.9013,0.1857,38.81,76,97,97737
1.8622,0.2102,38.93,76,97,97740
1.8573,0.1613,38.96,76,97,97743
1.8573,0.1711,39,76,97,97746
1.8524,0.1711,38.96,76,97,97751
1.9062,0.1906,38.84,76,97,97754
1.8524,0.1711,39.03,76,97,97757
1.8426,0.1613,38.9,76,97,97760
1.8573,0.1711,39.06,76,97,97764
1.8573,0.1662,39.03,76,97,97767
1.9159,0.1857,38.74,76,97,97770
1.8719,0.1515,38.93,76,97,97773
1.8475,0.1613,38.93,76,97,97777
1.8524,0.1662,39,76,97,97780
1.8475,0.176,39.06,76,97,97783
1.911,0.1857,38.81,76,97,97786
1.8719,0.1711,39,76,97,97790
1.8622,0.1662,38.93,76,97,97794
1.8817,0.1711,39.03,76,97,97797
1.8622,0.1662,38.9,76,97,97800
1.9208,0.1906,38.81,76,97,97804
1.8817,0.1711,38.96,76,97,97807
1.8719,0.1711,38.96,76,97,97810
1.8719,0.1711,38.93,76,97,97813
1.8671,0.1711,39.03,76,97,97817
1.9257,0.1906,38.81,76,97,97820
1.8817,0.176,38.93,76,97,97823
1.8768,0.1662,39.06,76,97,97826
1.8719,0.1662,39.06,76,97,97830
1.8671,0.1662,38.36,76,97,97833
1.9208,0.1857,38.84,76,97,97837
1.8768,0.1711,38.93,76,97,97841
1.8671,0.1662,38.9,76,97,97844
1.8719,0.1711,38.96,76,97,97847
1.8671,0.1662,39,76,97,97850
1.9208,0.1906,38.77,76,97,97854
1.8671,0.1711,38.96,76,97,97857
1.8671,0.1613,38.87,76,97,97860
1.8768,0.1711,39.03,76,97,97863
1.8719,0.1662,39.06,76,97,97867
1.9208,0.1906,38.81,76,97,97870
1.8768,0.1711,38.9,76,97,97873
1.8622,0.1613,38.96,76,97,97876
1.8719,0.1711,39.03,76,97,97881
1.8719,0.1662,39.03,76,97,97884
1.9355,0.1906,38.77,76,97,97887
1.8817,0.176,38.93,76,97,97890
1.8671,0.1613,38.62,76,97,97894
1.8719,0.1711,39,76,97,97897
1.8866,0.1613,39,76,97,97900
1.9159,0.1906,38.74,76,97,97903
1.8719,0.1662,38.87,76,97,97907
1.8671,0.1515,38.96,76,97,97910
1.8622,0.176,39,75,97,97913
1.9208,0.1662,39,75,97,97918
1.9306,0.1662,39,75,97,97922
1.9697,0.1808,38.81,75,97,97925
1.9501,0.1711,38.9,75,97,97928
1.9697,0.1711,38.9,75,97,97932
1.9648,0.1613,39,75,97,97935
1.9599,0.1662,39.03,75,97,97938
1.999,0.1808,38.84,75,97,97941
1.9844,0.1711,38.96,75,97,97945
2.0039,0.1662,38.9,75,97,97948
2.0039,0.1711,39,75,97,97951
2.0137,0.1662,39,75,97,97954
2.0479,0.1906,38.87,75,97,97958
2.0088,0.1711,38.93,75,97,97961
1.9892,0.1613,38.9,75,97,97965
1.955,0.1711,38.96,75,97,97968
1.9355,0.1662,39.03,75,97,97972
1.9599,0.1808,38.87,75,97,97975
1.9159,0.1711,38.96,75,97,97978
1.9257,0.1613,38.9,75,97,97981
1.8817,0.1711,39,75,97,97985
1.8768,0.1515,39,75,97,97988
1.911,0.1857,38.87,75,97,97991
1.8671,0.1857,38.93,75,97,97994
1.8573,0.1662,38.9,75,97,97998
1.8377,0.1711,39,75,97,98001
1.828,0.1613,39,75,97,98004
1.8573,0.1906,38.87,75,97,98008
1.828,0.1711,38.96,75,97,98012
1.8231,0.1662,38.93,75,97,98015
1.8133,0.1711,39,75,97,98018
1.8035,0.1662,39.06,75,97,98021
1.8524,0.1808,38.9,75,97,98025
1.8231,0.1711,38.96,75,97,98028
1.8377,0.1613,38.9,75,97,98031
1.8231,0.1808,39,75,97,98034
1.8182,0.1515,39,75,97,98038
1.8622,0.1906,38.84,75,97,98041
1.8035,0.176,38.96,75,97,98044
1.7986,0.1662,38.96,75,97,98048
1.8133,0.1711,39,75,97,98052
1.8671,0.1662,39,75,97,98055
1.9892,0.1808,38.81,75,97,98058
2.0479,0.1711,38.93,75,97,98061
2.1554,0.1515,38.9,75,97,98065
2.2972,0.1515,39,75,97,98068
2.4633,0.1613,39.12,75,97,98071
2.7224,0.1857,39.22,75,97,98074
2.7322,0.1711,38.84,75,97,98078
2.6491,0.1662,38.96,75,97,98081
2.4682,0.1711,39,75,97,98084
2.263,0.1711,39,75,97,98087
2.1457,0.1857,38.77,75,97,98092
1.9648,0.1711,38.96,75,97,98095
1.8866,0.1662,38.93,75,97,98098
1.8328,0.176,38.96,75,97,98101
1.8035,0.1662,39,75,97,98105
1.8377,0.1906,38.08,75,97,98108
1.7889,0.1711,39,75,97,98111
1.7595,0.1662,39,75,97,98114
1.7498,0.1711,38.24,75,97,98118
1.74,0.1662,39,75,97,98121
1.7889,0.1711,38.81,75,97,98124
1.74,0.176,38.93,75,97,98127
1.74,0.1662,38.9,75,97,98131
1.7449,0.1711,38.96,75,97,98135
1.7693,0.1613,39,75,97,98138
1.7937,0.1906,38.74,75,97,98141
1.7449,0.1711,39,75,97,98145
1.7498,0.1613,38.93,75,97,98148
1.7595,0.176,38.96,75,97,98151
1.7644,0.1613,39.03,75,97,98154
1.8182,0.1906,38.81,75,97,98158
1.7791,0.1711,39.06,75,97,98161
1.7693,0.1613,38.96,75,97,98164
1.7742,0.1515,39,75,97,98167
1.8133,0.1662,39,75,97,98171
1.8573,0.1906,38.77,75,97,98174
1.8182,0.1711,39,75,97,98178
1.8182,0.1613,38.96,75,97,98181
1.8524,0.1613,38.96,75,97,98185
1.8133,0.1613,39.06,75,97,98188
1.8768,0.1906,38.71,75,97,98191
1.8377,0.1711,38.96,75,97,98194
1.8377,0.1662,38.96,75,97,98198
1.8719,0.1711,39,75,97,98201
1.8377,0.1662,39,75,97,98204
1.8964,0.1906,38.77,75,97,98207
1.8622,0.1515,38.93,75,97,98211
1.8768,0.1711,38.96,75,97,98214
1.8719,0.1711,38.96,75,97,98217
1.8671,0.1613,39,75,97,98221
1.9257,0.1906,38.68,75,97,98225
1.8866,0.1711,39.22,75,97,98228
1.8817,0.1515,38.93,75,97,98231
1.8964,0.1711,39,75,97,98234
1.8964,0.1906,39,75,97,98238
1.9599,0.1906,38.77,75,97,98241
1.9159,0.1711,38.96,75,97,98244
1.911,0.1613,38.96,75,97,98247
1.9257,0.1711,39,75,97,98251
1.9306,0.1711,39,75,97,98254
1.9892,0.1906,38.87,75,97,98257
1.9501,0.1711,38.93,75,97,98260
1.9355,0.1662,38.96,75,97,98265
1.9453,0.176,39,75,97,98268
1.955,0.1662,39.03,75,97,98271
2.0235,0.1906,38.81,75,97,98274
1.999,0.1711,38.96,75,97,98278
1.9844,0.1613,38.93,75,97,98281
1.9941,0.1711,39,75,97,98284
2.0039,0.1662,39,75,97,98287
2.0772,0.1955,38.55,75,97,98291
2.0332,0.1711,38.93,75,97,98294
2.0381,0.1613,39.03,75,97,98297
2.0528,0.1711,39,75,97,98300
2.0528,0.1613,39,75,97,98305
2.1163,0.1906,38.77,75,97,98308
2.0772,0.1515,38.9,75,97,98311
2.0723,0.1613,39.06,75,97,98314
2.0821,0.1662,38.96,75,97,98318
2.0821,0.1662,39.03,75,97,98321
2.1799,0.1808,38.74,75,97,98324
2.1017,0.176,38.9,75,97,98327
2.0968,0.1515,39,75,97,98331
2.0968,0.176,38.93,75,97,98334
2.0919,0.1662,39.09,75,97,98337
2.1359,0.1857,38.68,75,97,98340
2.0674,0.1711,38.96,75,97,98344
2.0479,0.1906,39.03,75,97,98348
2.043,0.1711,39,75,97,98351
2.0186,0.1613,39.03,75,97,98354
2.0332,0.1808,38.74,75,97,98358
1.9746,0.1711,38.9,75,97,98361
1.9208,0.1955,39,75,97,98364
1.9062,0.176,39,75,97,98367
1.8719,0.1662,39,75,97,98370
1.8964,0.176,38.74,75,97,98374
1.8328,0.176,38.93,75,97,98377
1.7986,0.1662,39,75,97,98380
1.7889,0.1711,38.93,75,97,98383
1.7595,0.1662,39,75,97,98387
1.7937,0.176,38.71,75,97,98391
1.74,0.1662,38.84,75,97,98394
1.7351,0.1662,39,75,97,98397
1.7351,0.1662,38.9,75,97,98401
1.7107,0.1711,39,75,97,98404
1.7546,0.1808,38.74,75,97,98407
1.74,0.1711,38.93,75,97,98410
1.7155,0.1711,39,75,97,98414
1.7302,0.1857,39.12,75,97,98417
1.7204,0.1662,39.03,75,97,98420
1.784,0.176,38.77,75,97,98423
1.7351,0.1662,38.93,75,97,98427
1.7351,0.1662,39.22,75,97,98430
1.7546,0.176,38.93,75,97,98434
1.7498,0.1662,39,75,97,98437
1.7937,0.1808,38.81,75,97,98441
1.7546,0.1662,39,75,97,98444
1.7595,0.1662,39,75,97,98447
1.8035,0.1711,38.93,75,97,98450
1.7937,0.1711,39,75,97,98454
1.8231,0.176,38.71,75,97,98457
1.7986,0.1711,38.93,75,97,98460
1.784,0.176,39,75,97,98463
1.7937,0.176,38.93,75,97,98467
1.784,0.1662,39.06,75,97,98470
1.8328,0.1857,38.74,75,97,98473
1.8035,0.176,38.96,75,97,98477
1.7986,0.1662,39.06,75,97,98481
1.8084,0.1711,38.96,75,97,98484
1.7986,0.1613,39,75,97,98487
1.8426,0.2004,38.81,75,97,98490
1.8133,0.1662,38.87,75,97,98494
1.8182,0.1662,39,75,97,98497
1.8377,0.176,38.9,75,97,98500
1.8084,0.1662,39.06,75,97,98503
1.8524,0.176,38.77,75,97,98507
1.828,0.1711,38.9,75,97,98510
1.8231,0.1662,39,75,97,98513
1.8377,0.176,38.93,75,97,98516
1.8182,0.1662,38.9,75,97,98521
1.8573,0.1711,38.77,75,97,98524
1.8768,0.1955,38.74,75,97,98529
1.8328,0.1662,38.93,75,97,98532
1.8426,0.1613,39,75,97,98535
1.8622,0.1711,38.96,75,97,98538
1.8475,0.1613,39,75,97,98542
1.8964,0.1906,38.81,75,97,98545
1.8622,0.176,38.93,75,97,98548
1.8377,0.1662,39,75,97,98551
1.8426,0.1711,38.96,75,97,98555
1.8426,0.1711,39,75,97,98558
1.8964,0.1857,38.05,75,97,98562
1.8524,0.1711,38.93,75,97,98565
1.8426,0.1613,39,75,97,98569
1.8475,0.1613,38.96,75,97,98572
1.8377,0.1662,39.03,75,97,98575
1.8915,0.1857,38.71,75,97,98578
1.8475,0.1515,38.96,75,97,98582
1.8475,0.1613,39,75,97,98585
1.8524,0.1857,38.96,75,97,98588
1.8426,0.1662,39,75,97,98591
1.8915,0.1515,38.71,75,97,98595
1.8671,0.1711,38.93,75,97,98598
1.8573,0.1662,39,75,97,98601
1.9013,0.1613,38.96,75,97,98605
1.8622,0.1662,38.96,75,97,98609
1.9159,0.1857,38.71,75,97,98612
1.8768,0.1711,38.93,75,97,98615
1.8719,0.1613,38.96,75,97,98618
1.8768,0.1711,38.96,75,97,98622
1.8671,0.1564,39,75,97,98625
1.9159,0.1857,38.68,75,97,98628
1.8622,0.1711,39.06,75,97,98631
1.8622,0.1613,39,75,97,98635
1.8671,0.176,38.96,75,97,98638
1.8915,0.1711,39,75,97,98641
1.9306,0.1906,38.68,75,97,98644
1.8964,0.176,38.9,75,97,98649
1.8719,0.1955,38.96,75,97,98652
1.8719,0.1711,39,75,97,98655
1.8719,0.1662,39.06,75,97,98658
1.9257,0.1857,38.71,75,97,98662
1.8915,0.1711,38.93,75,97,98665
1.8719,0.176,39,75,97,98668
1.8719,0.1711,38.96,75,97,98671
1.8622,0.1662,39,75,97,98675
1.9159,0.1906,38.71,75,97,98678
1.8768,0.1808,38.96,75,97,98681
1.8768,0.1662,39,75,97,98684
1.8866,0.1711,38.93,75,97,98689
1.8719,0.1662,39,75,97,98692
1.9208,0.1857,38.68,75,97,98695
1.8915,0.1711,38.9,75,97,98698
1.8817,0.1662,39.03,75,97,98702
1.8866,0.1711,39,75,97,98705
1.8719,0.176,39,75,97,98708
1.9159,0.1808,38.71,75,97,98711
1.8768,0.1515,38.93,75,97,98715
1.8817,0.1662,39.03,75,97,98718
1.9013,0.1808,38.96,75,97,98721
1.911,0.1662,39.06,75,97,98724
1.9697,0.1808,38.71,75,97,98728
1.9355,0.1662,38.96,75,97,98732
1.9453,0.1711,39.03,75,97,98735
1.9648,0.176,38.96,75,97,98738
1.9599,0.1808,39,75,97,98742
2.0137,0.1808,38.71,75,97,98745
1.9795,0.176,38.9,75,97,98748
1.9648,0.1662,39,75,97,98751
1.9795,0.1711,39.03,75,97,98755
1.9892,0.1662,39,75,97,98758
2.0528,0.1808,38.74,75,97,98761
2.0137,0.1857,38.9,75,97,98764
1.999,0.1662,39,75,97,98768
1.999,0.1808,38.93,75,97,98771
1.9844,0.1711,38.3,75,97,98775
2.0235,0.1808,38.74,75,97,98778
1.9453,0.1662,38.96,75,97,98782
1.9355,0.1662,39,75,97,98785
1.9208,0.176,38.9,75,97,98788
1.8866,0.1662,39.03,75,97,98791
1.9208,0.1711,38.74,75,97,98795
1.8866,0.176,38.9,75,97,98798
1.8671,0.1662,38.93,75,97,98801
1.8719,0.176,39.03,75,97,98804
1.8524,0.1613,39.06,75,97,98808
1.8719,0.176,38.74,75,97,98811
1.8328,0.1711,38.9,75,97,98814
1.8084,0.1662,39,75,97,98818
1.8231,0.176,38.96,75,97,98822
1.7889,0.1857,39,75,97,98825
1.8231,0.176,38.74,75,97,98828
1.7742,0.1662,39.06,75,97,98831
1.7937,0.1662,39,75,97,98835
1.8133,0.1857,39.06,75,97,98838
1.8133,0.1711,39,75,97,98841
1.8622,0.176,38.71,75,97,98844
1.8328,0.176,38.93,75,97,98848
1.8133,0.1564,39,75,97,98851
1.8182,0.176,39,75,97,98854
1.8084,0.1662,39.03,75,97,98857
1.8622,0.176,38.77,75,97,98862
1.8475,0.1808,38.93,75,97,98865
1.8915,0.1662,39,75,97,98868
1.9746,0.1711,38.96,75,97,98871
2.0674,0.1613,39.03,75,97,98875
2.2434,0.176,38.81,75,97,98878
2.3509,0.1662,39.03,75,97,98881
2.5318,0.1613,39,75,97,98884
2.7175,0.1857,38.93,75,97,98888
2.7175,0.1662,39.03,75,97,98891
2.6686,0.176,38.77,75,97,98894
2.4878,0.176,38.9,75,97,98897
2.2434,0.1711,39.09,75,97,98902
2.0772,0.176,38.96,75,97,98905
1.9208,0.1662,39,75,97,98908
1.8719,0.176,38.77,75,97,98911
1.8084,0.1711,39,75,97,98915
1.7791,0.1662,39.03,75,97,98918
1.7889,0.176,38.93,75,97,98921
1.7546,0.1711,39,75,97,98924
1.7742,0.176,38.77,75,97,98927
1.7204,0.1711,39,75,97,98931
1.7155,0.1613,39,75,97,98934
1.7351,0.176,38.87,75,97,98937
1.7253,0.1662,39,75,97,98940
1.7595,0.176,38.77,75,97,98945
1.74,0.176,38.87,75,97,98948
1.7253,0.1662,39,75,97,98951
1.7449,0.176,38.93,75,97,98954
1.7351,0.1613,39,75,97,98958
1.784,0.176,38.84,75,97,98961
1.7644,0.1711,38.62,75,97,98964
1.7742,0.1711,39,75,97,98967
1.7889,0.176,38.9,75,97,98971
1.7742,0.1515,38.96,75,97,98974
1.8035,0.176,38.84,75,97,98977
1.7791,0.1711,39,75,97,98980
1.7937,0.1662,39,75,97,98984
1.8182,0.176,38.9,75,97,98988
1.7986,0.176,39,75,97,98991
1.8231,0.176,38.77,75,97,98994
1.8182,0.1711,39.12,75,97,98998
1.828,0.1662,39,75,97,99001
1.8475,0.176,38.93,75,97,99004
1.828,0.1662,39,75,97,99007
1.8573,0.1711,38.84,75,97,99011
1.828,0.1662,38.96,75,97,99014
1.8426,0.176,39,75,97,99017
1.8573,0.1808,38.96,75,97,99020
1.8524,0.1711,38.81,75,97,99024
1.8817,0.1711,38.84,75,97,99027
1.8573,0.1515,39,75,97,99031
1.8622,0.1613,39.03,75,97,99034
1.8915,0.2053,38.9,75,97,99038
1.8768,0.1711,39,75,97,99041
1.9013,0.1711,38.84,75,97,99044
1.8817,0.1711,38.9,75,97,99047
1.8768,0.1662,39.16,75,97,99051
1.9013,0.2199,38.9,75,97,99054
1.8915,0.1711,39,75,97,99057
1.9257,0.176,38.84,75,97,99060
1.9062,0.1662,38.96,75,97,99064
1.911,0.1662,39.06,75,97,99067
1.9257,0.1711,38.93,75,97,99070
1.9208,0.1808,39,75,97,99074
1.955,0.1711,38.87,75,97,99078
1.9355,0.1711,39,75,97,99081
1.9501,0.1613,39,75,97,99084
1.9697,0.1857,38.87,75,97,99087
1.955,0.1711,39.03,75,97,99091
1.9941,0.1711,38.84,75,97,99094
1.9795,0.1662,38.96,75,97,99097
1.999,0.1613,39,75,97,99100
2.0235,0.1808,38.9,75,97,99104
2.0137,0.1711,39,75,97,99107
2.0479,0.1955,38.87,75,97,99110
2.0283,0.1662,39.06,75,97,99113
2.0283,0.1662,39,75,97,99118
2.0528,0.1808,39,75,97,99121
2.0479,0.1711,39.03,75,97,99124
2.0723,0.176,38.9,75,97,99127
2.043,0.1711,38.96,75,97,99131
2.0479,0.1662,39.03,75,97,99134
2.087,0.1857,38.84,75,97,99137
2.043,0.176,39,75,97,99142
2.0235,0.1613,39,75,97,99145
2.0479,0.176,38.87,75,97,99148
1.999,0.1711,38.93,75,97,99151
2.0039,0.1613,39,75,97,99155
1.9501,0.176,38.84,75,97,99159
1.9013,0.1662,39,75,97,99162
1.911,0.176,38.77,75,97,99165
1.8573,0.2053,39.09,75,97,99169
1.8328,0.1662,39,75,97,99172
1.828,0.176,38.87,75,97,99175
1.7644,0.1662,39,75,97,99178
1.7644,0.1711,38.05,75,97,99182
1.7302,0.1662,38.9,75,97,99185
1.7155,0.1613,39.03,75,97,99188
1.7253,0.1711,38.9,75,97,99191
1.6862,0.1613,39,75,97,99195
1.7009,0.1711,38.84,75,97,99198
1.6764,0.1662,38.96,75,97,99202
1.6862,0.1613,39,75,97,99205
1.6716,0.176,38.87,75,97,99209
1.6618,0.1711,39.06,75,97,99212
1.6813,0.1711,38.81,75,97,99215
1.6618,0.1515,39.03,75,97,99218
1.6618,0.1711,39,75,97,99222
1.6862,0.1857,38.87,75,97,99225
1.6716,0.1711,39.09,75,97,99228
1.696,0.1711,38.81,75,97,99231
1.6813,0.1711,38.93,75,97,99235
1.6764,0.1662,39,75,97,99238
1.6911,0.176,39,75,97,99241
1.6862,0.1711,39.12,75,97,99245
1.7204,0.1711,38.81,75,97,99249
1.7155,0.1613,38.96,75,97,99252
1.7058,0.1564,39.03,75,97,99255
1.7155,0.1711,39,75,97,99258
1.7155,0.1711,39.03,75,97,99262
1.7351,0.176,38.84,75,97,99265
1.7155,0.1711,39,75,97,99268
1.7204,0.1662,39,75,97,99271
1.7449,0.176,38.87,75,97,99275
1.7302,0.1711,39,75,97,99278
1.7449,0.176,38.81,75,97,99281
1.7302,0.1662,39.16,75,97,99284
1.7351,0.1662,39,75,97,99289
1.7546,0.176,38.9,75,97,99292
1.74,0.1808,39,75,97,99295
1.7595,0.1711,38.84,75,97,99298
1.7351,0.1662,38.96,75,97,99302
1.7449,0.1711,39,75,97,99305
1.7498,0.1808,38.96,75,97,99308
1.74,0.1711,39.06,75,97,99311
1.7889,0.1711,38.84,75,97,99315
1.7302,0.1711,39,75,97,99318
1.7351,0.1857,39,75,97,99321
1.7595,0.1808,39,75,97,99324
1.74,0.1662,39,75,97,99329
1.7644,0.176,38.87,75,97,99332
1.7351,0.1662,38.96,75,97,99335
1.7302,0.1662,39,75,97,99338
1.7498,0.176,38.93,75,97,99342
1.7302,0.1662,39.06,75,97,99345
1.7546,0.1711,38.87,75,97,99348
1.74,0.1662,38.96,75,97,99351
1.74,0.1662,39,75,97,99355
1.7351,0.2053,38.93,75,97,99358
1.7253,0.1711,39,75,97,99361
1.7644,0.1711,38.9,75,97,99364
1.74,0.1711,39,75,97,99368
1.7302,0.1662,39,75,97,99372
1.7546,0.1808,38.9,75,97,99375
1.7155,0.1711,39,75,97,99378
1.7351,0.176,38.93,75,97,99382
1.7107,0.1613,38.96,75,97,99385
1.7498,0.1613,39,75,97,99388
1.74,0.176,38.9,75,97,99391
1.7107,0.1711,39.03,75,97,99395
1.7253,0.176,38.9,75,97,99398
1.7009,0.176,39.03,75,97,99401
1.7058,0.1662,39.12,75,97,99404
1.7253,0.1711,38.93,75,97,99408
1.7253,0.1711,39,75,97,99411
1.7449,0.176,38.87,75,97,99415
1.7155,0.1711,39.06,75,97,99418
1.7107,0.1662,38.9,75,97,99422
1.74,0.1808,38.87,75,97,99425
1.7155,0.176,39,75,97,99428
1.7351,0.1906,38.9,75,97,99431
1.7058,0.1711,39,75,97,99435
1.7107,0.1711,39,75,97,99438
1.7253,0.1857,38.87,75,97,99441
1.7058,0.1711,38.96,75,97,99444
1.7351,0.1515,38.9,75,97,99448
1.7107,0.1711,39,75,97,99451
1.7107,0.176,39,75,97,99454
1.7204,0.1711,38.96,75,97,99458
1.7058,0.1711,38.96,75,97,99462
1.7351,0.1711,38.87,75,97,99465
1.7107,0.1711,39,75,97,99468
1.7058,0.1662,39,75,97,99471
1.7351,0.1808,38.9,75,97,99475
1.7107,0.1711,39,75,97,99478
1.7253,0.1711,38.87,75,97,99481
1.7058,0.1711,39.03,75,97,99484
1.7107,0.1515,39,75,97,99488
1.74,0.1711,38.87,75,97,99491
1.7058,0.1662,39,75,97,99494
1.7204,0.1711,38.87,75,97,99497
1.696,0.1711,39,75,97,99502
1.696,0.1711,39,75,97,99505
1.7253,0.1857,38.93,75,97,99508
1.7155,0.1711,38.84,75,97,99511
1.74,0.1515,38.84,75,97,99515
1.7155,0.1711,39,75,97,99518
1.7302,0.1662,39,75,97,99521
1.7693,0.1808,38.87,75,97,99524
1.7595,0.1711,39,75,97,99528
1.784,0.1711,38.84,75,97,99531
1.7742,0.1711,39,75,97,99534
1.7693,0.1955,39,75,97,99537
1.7986,0.1808,38.77,75,97,99542
1.7791,0.1711,39,75,97,99545
1.8035,0.176,38.87,75,97,99548
1.7889,0.1711,39.03,75,97,99551
1.7986,0.1662,39.03,75,97,99555
1.828,0.1808,38.93,75,97,99558
1.828,0.176,39.03,75,97,99561
1.8524,0.1711,38.87,75,97,99564
1.8377,0.1711,39,75,97,99568
1.8377,0.1662,39.03,75,97,99571
1.8719,0.1808,38.81,75,97,99574
1.8377,0.1711,39,75,97,99577
1.7986,0.1906,38.84,75,97,99581
1.7546,0.1711,39,75,97,99585
1.7449,0.1613,39,75,97,99588
1.7595,0.1808,38.87,75,97,99591
1.7253,0.1711,39.03,75,97,99595
1.7253,0.1711,38.84,75,97,99598
1.7009,0.176,39,75,97,99601
1.6813,0.1711,39.06,75,97,99604
1.6911,0.1808,39,75,97,99608
1.6667,0.1711,38.96,75,97,99611
1.696,0.176,38.87,75,97,99614
1.6325,0.1613,39,75,97,99617
1.6227,0.1662,39.03,75,97,99621
1.6373,0.1808,38.84,75,97,99624
1.6227,0.1711,39,75,97,99628
1.6422,0.1711,38.84,75,97,99631
1.6471,0.1711,39.03,75,97,99635
1.6276,0.1955,39,75,97,99638
1.652,0.1808,38.96,75,97,99641
1.6373,0.1711,39,75,97,99644
1.6569,0.1808,38.87,75,97,99648
1.6373,0.1711,39,75,97,99651
1.6227,0.1662,39.03,75,97,99654
1.6276,0.1711,38.9,75,97,99657
1.6129,0.1711,38.96,75,97,99661
1.6569,0.1711,38.77,75,97,99664
1.7009,0.176,39,75,97,99667
1.7889,0.1711,39,75,97,99671
1.9404,0.1808,38.84,75,97,99675
2.0381,0.1857,39,75,97,99678
2.2141,0.1711,38.9,75,97,99681
2.4047,0.1711,39,75,97,99684
2.5269,0.1662,39.09,75,97,99688
2.5709,0.1808,38.87,75,97,99691
2.4096,0.176,38.96,75,97,99694
2.2336,0.1711,38.9,75,97,99697
2.0137,0.1711,39,75,97,99700
1.8671,0.1711,39,75,97,99704
1.7546,0.1808,38.9,75,97,99707
1.6667,0.1515,39,75,97,99710
1.6373,0.1662,38.9,75,97,99714
1.5982,0.1662,39.03,75,97,99718
1.5738,0.1711,39.19,75,97,99721
1.5934,0.1808,38.84,75,97,99724
1.5591,0.1515,38.96,75,97,99727
1.5445,0.176,38.93,75,97,99731
1.5298,0.1662,38.96,75,97,99734
1.5249,0.1711,39.09,75,97,99737
1.5543,0.1808,38.84,75,97,99740
1.5347,0.1711,38.96,75,97,99744
1.5445,0.1662,38.9,75,97,99747
1.5396,0.1808,39,75,97,99750
1.564,0.1711,39,75,97,99756
1.5787,0.1662,39,75,97,99759
1.608,0.1808,38.87,75,97,99762
1.5836,0.1711,38.96,75,97,99766
1.6422,0.1711,38.9,75,97,99769
1.5934,0.1711,39,75,97,99772
1.6031,0.1662,39,75,97,99775
1.6276,0.1808,38.9,75,97,99779
1.6129,0.1662,39.06,75,97,99782
1.6373,0.176,38.96,75,97,99785
1.6178,0.1711,39.03,75,97,99788
1.6227,0.1662,39.06,75,97,99792
1.6471,0.1711,38.93,75,97,99795
1.6422,0.176,39,75,97,99799
1.6667,0.176,38.93,75,97,99802
1.6422,0.1711,39.03,75,97,99806
1.6471,0.1662,39,75,97,99809
1.6764,0.1857,38.84,75,97,99812
1.6716,0.1711,39,75,97,99815
1.6911,0.1808,38.87,75,97,99819
1.6716,0.1711,39.09,75,97,99822
1.6667,0.1662,39,75,97,99825
1.7107,0.1808,38.9,75,97,99828
1.6911,0.1711,38.24,75,97,99832
1.7253,0.176,38.87,75,97,99835
1.7107,0.176,39,75,97,99838
1.7107,0.1613,39,75,97,99842
1.7253,0.1955,38.9,75,97,99846
1.7155,0.1711,39,75,97,99849
1.74,0.176,38.87,75,97,99852
1.7351,0.176,39,75,97,99855
1.7449,0.1711,38.93,75,97,99859
1.784,0.1808,38.87,75,97,99862
1.7595,0.1711,39,75,97,99865
1.7791,0.176,38.84,75,97,99868
1.7644,0.1711,39.19,75,97,99872
1.7791,0.1662,39,75,97,99875
1.8133,0.1515,38.87,75,97,99878
1.8035,0.1613,39,75,97,99881
1.8328,0.1906,38.84,75,97,99886
1.8133,0.1711,39,75,97,99889
1.828,0.1662,39.03,75,97,99892
1.8671,0.1711,38.96,75,97,99895
1.8524,0.1711,39,75,97,99899
1.8866,0.1906,38.87,75,97,99902
1.8671,0.1711,38.93,75,97,99905
1.8768,0.1662,39.03,75,97,99908
1.9159,0.1808,38.93,75,97,99912
1.9257,0.176,39,75,97,99915
1.9159,0.1711,39.12,75,97,99918
1.8915,0.1662,38.24,75,97,99921
1.8817,0.1515,39,75,97,99926
1.9453,0.1711,38.93,75,97,99929
1.8866,0.176,39,75,97,99932
1.911,0.1515,38.87,75,97,99935
1.8866,0.1711,39,75,97,99939
1.9062,0.1711,39,75,97,99942
1.8719,0.1808,38.93,75,97,99945
1.8426,0.1515,38.96,75,97,99948
1.8426,0.1711,38.84,75,97,99952
1.7986,0.1515,39.03,75,97,99955
1.7742,0.1808,39,75,97,99958
1.7742,0.1808,39.06,75,97,99961
1.7155,0.1711,39,75,97,99965
1.7009,0.176,38.84,75,97,99969
1.6618,0.1711,39.03,75,97,99972
1.6471,0.1662,39,75,97,99975
1.6471,0.1711,38.87,75,97,99979
1.608,0.1613,38.96,75,97,99982
1.6031,0.1711,38.9,75,97,99985
1.5689,0.1711,39,75,97,99988
1.564,0.1662,39,75,97,99992
1.5738,0.176,38.93,75,97,99995
1.5591,0.1711,39.09,75,97,99998
1.564,0.1711,38.87,75,97,100001
1.564,0.176,39,75,97,100005
1.5396,0.1613,39,75,97,100008
1.5689,0.1808,38.9,75,97,100012
1.5494,0.176,39,75,97,100016
1.5738,0.1711,38.87,75,97,100019
1.5543,0.1613,38.55,75,97,100022
1.5591,0.1564,39.06,75,97,100026
1.5738,0.176,38.84,75,97,100029
1.5689,0.1857,39,75,97,100032
1.5982,0.176,38.81,75,97,100035
1.5836,0.1711,38.93,75,97,100039
1.5836,0.1613,39,75,97,100042
1.5885,0.176,38.93,75,97,100045
1.5836,0.1711,39.06,75,97,100049
1.6227,0.1857,38.74,75,97,100052
1.5934,0.1662,39,75,97,100056
1.608,0.1662,38.96,75,97,100060
1.6227,0.1808,38.96,75,97,100063
1.608,0.1662,38.9,75,97,100066
1.652,0.1857,38.74,75,97,100069
1.6373,0.1711,38.9,75,97,100073
1.6276,0.1515,39,75,97,100076
1.6373,0.176,39,75,97,100079
1.6373,0.176,39.03,75,97,100083
1.6813,0.1906,38.84,75,97,100086
1.6471,0.176,38.96,75,97,100089
1.6569,0.1515,38.9,75,97,100093
1.652,0.1711,39.03,75,97,100097
1.6569,0.1711,38.96,75,97,100100
1.696,0.1808,38.93,75,97,100103
1.6618,0.1711,39,75,97,100107
1.6764,0.176,38.81,75,97,100110
1.6569,0.1711,39,75,97,100113
1.6667,0.1662,39,75,97,100117
1.7009,0.1808,38.93,75,97,100120
1.7009,0.176,39,75,97,100123
1.7009,0.1808,38.9,75,97,100127
1.6716,0.1711,38.84,75,97,100130
1.7107,0.1711,39,75,97,100133
1.7058,0.1515,38.93,75,97,100136
1.6813,0.1613,39,75,97,100141
1.7009,0.1711,38.84,75,97,100144
1.6862,0.1662,38.9,75,97,100147
1.6813,0.1711,39,75,97,100151
1.7009,0.176,38.87,75,97,100154
1.6911,0.1711,39,75,97,100157
1.7155,0.176,38.77,75,97,100161
1.6911,0.176,38.96,75,97,100164
1.6813,0.1662,39,75,97,100167
1.6911,0.1711,38.96,75,97,100171
1.6862,0.1711,38.96,75,97,100174
1.7546,0.176,38.74,75,97,100177
1.696,0.1711,38.96,75,97,100180
1.696,0.1564,39,75,97,100185
1.6911,0.1711,39,75,97,100188
1.6911,0.1662,38.24,75,97,100191
1.7498,0.1808,38.81,75,97,100195
1.7155,0.176,38.93,75,97,100198
1.7058,0.176,38.9,75,97,100201
1.696,0.1711,39,75,97,100205
1.6911,0.1662,38.84,75,97,100208
1.7253,0.1857,38.84,75,97,100211
1.7058,0.1711,38.58,75,97,100215
1.7204,0.1906,38.87,75,97,100218
1.7009,0.1711,39,75,97,100221
1.696,0.1515,39,75,97,100225
1.7204,0.1808,38.9,75,97,100229
1.7058,0.176,38.96,75,97,100232
1.7351,0.176,38.9,75,97,100235
1.7155,0.1711,39,75,97,100239
1.7204,0.1662,39,75,97,100242
1.7204,0.1515,38.93,75,97,100245
1.7107,0.1711,38.96,75,97,100249
1.7302,0.1662,38.84,75,97,100252
1.7155,0.1711,39.09,75,97,100255
1.7155,0.1613,39,75,97,100258
1.7351,0.1808,38.93,75,97,100262
1.7155,0.2004,39.06,75,97,100265
1.7595,0.176,38.77,75,97,100269
1.7351,0.1711,38.9,75,97,100273
1.7253,0.1808,39,75,97,100276
1.74,0.1711,38.96,75,97,100279
1.7302,0.1662,38.9,75,97,100283
1.7693,0.1808,38.71,75,97,100286
1.7351,0.1515,38.93,75,97,100289
1.7302,0.1613,38.96,75,97,100292
1.7449,0.1711,39,75,97,100296
1.7449,0.1515,39,75,97,100299
1.7937,0.1906,38.77,75,97,100302
1.7449,0.1711,38.96,75,97,100306
1.7449,0.1662,38.87,75,97,100310
1.7498,0.1662,39,75,97,100313
1.7449,0.1662,38.96,75,97,100317
1.784,0.1711,38.9,75,97,100320
1.7693,0.1711,38.96,75,97,100323
1.7937,0.1857,38.87,75,97,100327
1.7889,0.1711,39,75,97,100330
1.8035,0.1662,39.03,75,97,100333
1.8426,0.1906,38.87,75,97,100336
1.8182,0.1711,39,75,97,100340
1.8475,0.1808,38.87,75,97,100343
1.8182,0.1613,38.96,75,97,100346
1.8231,0.1662,38.96,75,97,100350
1.8426,0.1711,38.93,75,97,100354
1.8475,0.1662,39.06,75,97,100357
1.8915,0.176,38.81,75,97,100361
1.9648,0.176,38.71,74,97,100365
1.8671,0.1662,39,74,97,100369
1.8426,0.1808,38.96,74,97,100372
1.828,0.1711,38.96,74,97,100375
1.7986,0.176,39,74,97,100379
1.8426,0.1906,38.81,74,97,100382
1.7937,0.1711,39,74,97,100385
1.784,0.176,38.9,74,97,100389
1.7693,0.1711,39.03,74,97,100392
1.7546,0.1662,39.22,74,97,100396
1.7889,0.1808,38.84,74,97,100399
1.74,0.1711,39,74,97,100403
1.7449,0.1955,38.87,74,97,100406
1.7058,0.1711,39,74,97,100409
1.7058,0.1662,39.03,74,97,100413
1.7253,0.1808,38.9,74,97,100416
1.7107,0.1662,39,74,97,100419
1.7253,0.176,38.93,74,97,100423
1.7155,0.1711,39,74,97,100426
1.7204,0.1515,39.03,74,97,100429
1.7155,0.1711,38.9,74,97,100432
1.7253,0.1613,39,74,97,100436
1.7498,0.1711,38.84,74,97,100440
1.7302,0.1711,39.06,74,97,100443
1.7058,0.1613,39,74,97,100447
1.7204,0.176,38.93,74,97,100450
1.7351,0.1711,39,74,97,100453
1.784,0.176,38.77,74,97,100457
1.828,0.176,38.9,74,97,100460
1.911,0.1662,39,74,97,100463
2.043,0.1515,39,74,97,100466
2.1652,0.1662,39,74,97,100470
2.3803,0.1808,38.71,74,97,100473
2.522,0.176,38.93,74,97,100476
2.6295,0.1613,39.06,74,97,100481
2.5953,0.176,39,74,97,100484
2.4438,0.1613,39,74,97,100487
2.3069,0.1906,38.77,74,97,100491
2.0528,0.1711,38.96,74,97,100494
1.8964,0.1662,38.93,74,97,100497
1.8133,0.1711,39,74,97,100500
1.7791,0.1613,39,74,97,100504
1.7791,0.1808,38.9,74,97,100507
1.7253,0.1711,39,74,97,100510
1.7155,0.1711,38.9,74,97,100514
1.6764,0.1711,39,74,97,100517
1.6667,0.1662,39.03,74,97,100520
1.6862,0.1711,38.93,74,97,100525
1.6471,0.1711,38.96,74,97,100528
1.6618,0.1711,38.93,74,97,100531
1.6373,0.1613,38.96,74,97,100535
1.6422,0.1564,39,74,97,100538
1.6618,0.1711,38.96,74,97,100541
1.6618,0.1613,39,74,97,100544
1.6911,0.1711,38.81,74,97,100548
1.6716,0.1662,39,74,97,100551
1.6716,0.1662,39,74,97,100554
1.696,0.176,39,74,97,100558
1.7009,0.1662,39.12,74,97,100561
1.74,0.176,38.74,74,97,100564
1.7107,0.1662,38.96,74,97,100569
1.7155,0.176,39,74,97,100572
1.7302,0.1711,38.96,74,97,100575
1.7253,0.1613,39,74,97,100579
1.7742,0.1808,38.71,74,97,100582
1.7546,0.1711,38.93,74,97,100585
1.7498,0.1613,39,74,97,100588
1.7546,0.1711,39,74,97,100592
1.7644,0.1662,39,74,97,100595
1.8084,0.1808,38.84,74,97,100598
1.7791,0.176,38.96,74,97,100602
1.7889,0.1711,38.9,74,97,100605
1.7742,0.1711,38.96,74,97,100609
1.7791,0.1613,39,74,97,100613
1.8084,0.176,38.9,74,97,100616
1.7937,0.1613,39,74,97,100619
1.828,0.176,38.84,74,97,100623
