1.9062,0.2933,38.55,84,93,148308
1.8866,0.2933,38.71,84,93,148313
1.8915,0.2884,38.71,84,93,148316
1.8866,0.2933,38.65,84,93,148319
1.8524,0.303,38.74,84,93,148323
1.8622,0.2933,38.58,84,93,148326
1.8231,0.2933,38.9,84,93,148329
1.8182,0.303,38.71,84,93,148333
1.8426,0.303,38.58,84,93,148336
1.8377,0.2933,38.68,84,93,148339
1.9159,0.2981,38.52,84,93,148342
1.8866,0.2933,38.65,84,93,148346
1.8768,0.2933,38.84,84,93,148349
1.8964,0.303,38.68,84,93,148353
1.8426,0.3275,38.74,84,93,148357
1.8622,0.303,38.43,84,93,148360
1.8084,0.2933,38.62,84,93,148363
1.8426,0.2933,38.71,84,93,148367
1.8524,0.2981,38.4,84,93,148370
1.8719,0.2981,38.71,84,93,148373
1.9404,0.3128,38.52,84,93,148377
1.911,0.3226,38.62,84,93,148380
1.911,0.2981,38.62,84,93,148383
1.9159,0.2933,38.62,84,93,148386
1.9257,0.2884,38.71,84,93,148390
1.9844,0.3079,38.62,84,93,148393
1.9501,0.303,38.65,84,93,148397
1.9746,0.2933,38.58,84,93,148401
1.9208,0.2933,38.74,84,93,148404
1.9208,0.2933,38.71,84,93,148407
1.9355,0.303,38.52,84,93,148411
1.911,0.2933,38.71,84,93,148414
1.9355,0.303,38.62,84,93,148417
1.8915,0.2884,38.74,84,93,148420
1.8768,0.2981,38.71,84,93,148424
1.8866,0.2981,38.65,84,93,148427
1.8671,0.2981,38.74,84,93,148430
1.8964,0.2933,38.52,84,93,148434
1.8573,0.2835,38.65,84,93,148438
1.8328,0.2933,38.71,84,93,148441
1.8133,0.3226,38.58,84,93,148445
1.7791,0.2688,38.71,84,93,148448
1.8133,0.303,38.4,84,93,148451
1.784,0.2884,38.65,84,93,148455
1.7937,0.2933,38.71,84,93,148458
1.8182,0.303,38.68,84,93,148461
1.8035,0.2933,38.77,84,93,148465
1.8573,0.3079,38.43,84,93,148468
1.8377,0.2688,38.62,84,93,148471
1.8377,0.2884,38.68,84,93,148474
1.8475,0.2884,38.68,84,93,148478
1.8133,0.2933,38.71,84,93,148482
1.8377,0.3324,38.49,84,93,148485
1.784,0.2981,38.65,84,93,148489
1.7742,0.2933,38.58,84,93,148492
1.7791,0.2981,38.68,84,93,148495
1.7742,0.2933,38.74,84,93,148499
1.8035,0.3079,38.55,84,93,148502
1.7889,0.2884,38.71,84,93,148505
1.8133,0.2981,38.58,84,93,148509
1.8133,0.2933,38.71,84,93,148512
1.828,0.2933,38.71,84,93,148515
1.8426,0.2933,38.65,84,93,148518
1.8328,0.2933,38.68,84,93,148523
1.8524,0.2933,38.65,84,93,148526
1.8182,0.2933,38.71,84,93,148529
1.8084,0.2933,38.71,84,93,148533
1.8426,0.2981,38.62,84,93,148536
1.7937,0.2933,38.71,84,93,148539
1.8377,0.2884,38.46,84,93,148543
1.8035,0.2981,38.4,84,93,148546
1.7937,0.2933,38.77,84,93,148549
1.828,0.303,38.62,84,93,148553
1.8084,0.2933,38.74,84,93,148556
1.8671,0.303,38.43,84,93,148559
1.8377,0.2933,38.58,84,93,148562
1.8573,0.2933,38.74,84,93,148567
1.8671,0.2981,38.71,84,93,148570
1.8524,0.2933,38.77,84,93,148573
1.8719,0.3079,38.43,84,93,148577
1.8182,0.303,38.62,84,93,148580
1.7889,0.2884,38.65,84,93,148583
1.7889,0.2933,38.65,84,93,148587
1.7986,0.2933,38.77,84,93,148590
1.8671,0.303,38.55,84,93,148593
1.8671,0.2981,38.68,84,93,148597
1.8964,0.2933,38.62,84,93,148600
1.8768,0.2933,38.77,84,93,148603
1.8573,0.2884,38.74,84,93,148606
1.8524,0.2981,38.55,84,93,148611
1.8182,0.2933,38.77,84,93,148614
1.828,0.303,38.58,84,93,148617
1.7937,0.2933,38.68,84,93,148621
1.8035,0.2933,38.77,84,93,148624
1.8328,0.303,38.62,84,93,148627
1.8573,0.2933,38.71,84,93,148631
1.8475,0.2933,38.58,84,93,148634
1.8133,0.2981,38.68,84,93,148637
1.8084,0.2933,38.71,84,93,148641
1.828,0.303,38.58,84,93,148644
1.8182,0.2933,38.71,84,93,148647
1.8622,0.303,38.46,84,93,148651
1.8231,0.2933,38.68,84,93,148655
1.8231,0.2933,38.71,84,93,148658
1.8328,0.3372,38.65,84,93,148661
1.8133,0.2933,38.71,84,93,148665
1.8719,0.3128,38.46,84,93,148668
1.8719,0.2981,38.62,84,93,148671
1.8915,0.2884,38.65,84,93,148675
1.9453,0.2981,38.68,84,93,148678
1.9746,0.2933,38.68,84,93,148681
2.0479,0.3128,38.52,84,93,148685
1.911,0.2981,38.68,84,93,148689
1.8768,0.2933,37.96,84,93,148694
1.8915,0.303,38.68,84,93,148697
1.8573,0.2933,38.71,84,93,148700
1.8426,0.2933,38.68,84,93,148703
1.8377,0.2688,38.62,84,93,148707
1.8182,0.2933,38.65,84,93,148710
1.8133,0.2933,38.52,84,93,148713
1.7693,0.303,38.68,84,93,148717
1.7595,0.2981,38.71,84,93,148720
1.7742,0.303,38.81,84,93,148723
1.7986,0.2933,38.71,84,93,148727
1.8231,0.303,38.46,84,93,148730
1.8133,0.303,38.62,84,93,148733
1.8182,0.2884,38.71,84,93,148738
1.7986,0.2981,38.62,84,93,148741
1.7644,0.2884,38.68,84,93,148744
1.8084,0.3079,38.43,84,93,148747
1.7546,0.2981,38.55,84,93,148751
1.7351,0.2933,38.68,84,93,148754
1.7449,0.2981,38.71,84,93,148757
1.7449,0.2933,38.71,84,93,148761
1.7889,0.3079,38.52,84,93,148764
1.7498,0.2981,38.74,84,93,148767
1.7498,0.2933,38.62,84,93,148771
1.7351,0.2933,38.81,84,93,148774
1.7498,0.2933,38.71,84,93,148777
1.8035,0.303,38.62,84,93,148782
1.7937,0.2981,38.68,84,93,148785
1.8133,0.2981,38.55,84,93,148788
1.7644,0.303,38.71,84,93,148792
1.7986,0.2933,38.71,84,93,148795
1.8768,0.303,38.52,84,93,148798
1.9844,0.2981,38.71,84,93,148801
2.1701,0.2933,38.55,84,93,148805
2.2678,0.2933,38.65,84,93,148808
2.3412,0.303,38.71,84,93,148811
2.3949,0.2981,38.52,84,93,148815
2.3265,0.3177,38.74,84,93,148818
2.2287,0.303,38.49,84,93,148822
2.0186,0.2933,38.65,84,93,148826
1.8133,0.2933,38.15,84,93,148829
1.6422,0.303,38.62,84,93,148832
1.3832,0.2933,38.71,84,93,148835
1.2219,0.3128,38.43,84,93,148839
1.0508,0.2933,38.77,84,93,148842
1.0117,0.2933,38.27,84,93,148845
1.0508,0.303,38.68,84,93,148849
1.1486,0.2933,38.71,84,93,148852
1.3587,0.3079,38.4,84,93,148855
1.5005,0.2981,38.62,84,93,148859
1.6422,0.2933,38.65,84,93,148862
1.7546,0.2981,38.71,84,93,148866
1.828,0.2933,38.71,84,93,148869
1.9306,0.3079,38.52,84,93,148873
1.9208,0.3226,38.62,84,93,148876
1.9404,0.2688,38.58,84,93,148879
1.911,0.2933,38.71,84,93,148883
1.9062,0.2933,38.65,84,93,148886
1.9453,0.3079,38.55,84,93,148889
1.9257,0.2933,38.68,84,93,148893
1.9355,0.2981,38.55,84,93,148896
1.9062,0.2933,38.71,84,93,148899
1.9013,0.3226,38.71,84,93,148903
1.9159,0.2933,38.65,84,93,148907
1.9062,0.2981,38.71,84,93,148910
1.9306,0.2933,38.55,84,93,148913
1.9013,0.2933,38.71,84,93,148917
1.911,0.2933,38.68,84,93,148920
1.9159,0.2981,38.62,84,93,148923
1.8915,0.2981,38.71,84,93,148927
1.9159,0.2981,38.49,84,93,148930
1.8866,0.2981,38.58,84,93,148933
1.8671,0.2933,38.68,84,93,148937
1.9013,0.303,38.58,84,93,148940
1.8915,0.2981,38.68,84,93,148943
1.955,0.303,38.43,84,93,148947
1.9159,0.2933,38.52,84,93,148951
1.9257,0.2981,38.74,84,93,148954
1.8915,0.2981,38.68,84,93,148957
1.8768,0.2933,38.65,84,93,148961
1.9697,0.3128,38.46,84,93,148964
1.9062,0.303,38.62,84,93,148967
1.9013,0.2884,38.68,84,93,148971
1.8964,0.2981,38.71,84,93,148974
1.8964,0.2933,38.74,84,93,148977
1.9159,0.3079,38.58,84,93,148981
1.8768,0.2981,38.71,84,93,148984
1.8866,0.2933,38.58,84,93,148987
1.8671,0.2933,38.4,84,93,148992
1.8671,0.2933,38.74,84,93,148995
1.9013,0.303,38.52,84,93,148998
1.8817,0.303,38.71,84,93,149001
1.9062,0.303,38.58,84,93,149005
1.8768,0.2688,38.71,84,93,149008
1.8573,0.2933,38.77,84,93,149011
1.8573,0.2981,38.62,84,93,149015
1.8377,0.2933,38.74,84,93,149018
1.8719,0.2884,38.49,84,93,149021
1.8622,0.2933,38.68,84,93,149025
1.8719,0.2933,38.71,84,93,149028
1.8817,0.2981,38.65,84,93,149031
1.8573,0.2933,38.68,84,93,149036
1.8768,0.303,38.46,84,93,149039
1.828,0.2933,38.65,84,93,149042
1.828,0.2884,38.71,84,93,149045
1.8182,0.2933,38.9,84,93,149049
1.8035,0.2884,38.71,84,93,149052
1.8768,0.3079,38.43,84,93,149055
1.8622,0.2981,38.62,84,93,149059
1.8573,0.2884,38.68,84,93,149062
1.8719,0.2981,38.62,84,93,149065
1.8719,0.2933,38.71,84,93,149069
1.9013,0.3128,38.81,84,93,149072
1.8719,0.2981,38.62,84,93,149075
1.8817,0.2933,38.62,84,93,149080
1.8915,0.303,38.71,84,93,149083
1.9013,0.2933,38.71,84,93,149086
1.955,0.303,38.55,84,93,149089
1.9355,0.2933,38.68,84,93,149093
1.9599,0.2981,38.55,84,93,149096
1.9404,0.303,38.81,84,93,149099
1.9453,0.2933,38.71,84,93,149103
1.9599,0.3079,38.68,84,93,149106
1.9599,0.2981,38.68,84,93,149109
1.9746,0.2933,38.58,84,93,149113
1.9697,0.2884,38.71,84,93,149116
1.9257,0.2933,38.71,84,93,149120
1.9404,0.2981,38.58,84,93,149124
1.9159,0.2933,38.71,84,93,149127
1.9404,0.303,38.46,84,93,149130
1.9013,0.2933,38.68,84,93,149133
1.8719,0.2884,38.71,84,93,149137
1.8719,0.3079,38.62,84,93,149140
1.8426,0.2884,38.71,84,93,149143
1.8768,0.303,38.46,84,93,149147
1.8426,0.2933,38.62,84,93,149150
1.8182,0.2933,38.71,84,93,149153
1.8328,0.2933,38.71,84,93,149157
1.828,0.2933,38.71,84,93,149160
1.8768,0.3079,38.4,84,93,149164
1.8182,0.303,38.68,84,93,149168
1.8182,0.2884,38.65,84,93,149171
1.8182,0.2981,38.74,84,93,149174
1.8182,0.2933,38.74,84,93,149177
1.8671,0.3079,38.58,84,93,149181
1.8573,0.303,38.68,84,93,149184
1.8426,0.2933,38.62,84,93,149187
1.8524,0.2933,38.71,84,93,149191
1.8182,0.2933,38.71,84,93,149194
1.8328,0.3324,38.52,84,93,149197
1.7986,0.2981,38.77,84,93,149201
1.8133,0.303,38.62,84,93,149204
1.7937,0.2933,38.65,84,93,149208
1.7937,0.2933,38.71,84,93,149212
1.8475,0.2981,38.58,84,93,149215
1.8035,0.2933,38.71,84,93,149218
1.8426,0.2933,38.49,84,93,149221
1.8182,0.2933,38.65,84,93,149225
1.8231,0.2933,38.71,84,93,149228
1.8524,0.2981,38.62,84,93,149231
1.8133,0.2933,38.71,84,93,149235
1.8524,0.3128,38.46,84,93,149238
1.8182,0.2884,38.65,84,93,149241
1.828,0.2933,38.81,84,93,149245
1.8475,0.2981,38.68,84,93,149249
1.8377,0.3128,38.71,84,93,149252
1.8915,0.3079,38.4,84,93,149256
1.8524,0.2981,38.43,84,93,149259
1.8182,0.2884,38.65,84,93,149262
1.8231,0.2981,38.81,84,93,149265
1.8133,0.2835,38.71,84,93,149269
1.8719,0.3079,38.52,84,93,149272
1.8426,0.3372,38.62,84,93,149275
1.8377,0.2933,38.58,84,93,149279
1.8231,0.2933,38.74,84,93,149282
1.828,0.2688,38.71,84,93,149285
1.8524,0.303,38.52,84,93,149289
1.8328,0.2835,38.68,84,93,149293
1.8719,0.2981,38.55,84,93,149296
1.8524,0.2933,38.71,84,93,149300
1.8182,0.2884,38.71,84,93,149304
1.828,0.2933,38.71,84,93,149308
1.8524,0.303,38.68,84,93,149311
1.8475,0.2884,38.71,84,93,149314
1.9208,0.303,38.46,84,93,149318
1.9159,0.2981,38.58,84,93,149321
1.8915,0.2981,38.68,84,93,149324
1.9062,0.2981,38.65,84,93,149327
1.8915,0.2933,38.71,84,93,149331
1.955,0.3079,38.43,84,93,149335
1.9208,0.303,38.55,84,93,149338
1.9208,0.2688,38.65,84,93,149342
1.9355,0.2981,38.87,84,93,149345
1.9453,0.2835,38.71,84,93,149348
2.0088,0.3079,38.62,84,93,149352
1.955,0.3128,38.65,84,93,149355
1.9355,0.2884,38.58,84,93,149358
1.9062,0.2933,38.71,84,93,149362
1.8866,0.2981,38.71,84,93,149365
1.9062,0.303,37.77,84,93,149368
1.8573,0.2981,38.65,84,93,149371
1.8377,0.3079,38.55,84,93,149376
1.784,0.2933,38.74,84,93,149379
1.7595,0.2884,38.71,84,93,149382
1.7791,0.303,38.58,84,93,149386
1.7546,0.2981,38.68,84,93,149389
1.7742,0.2933,38.55,84,93,149392
1.7498,0.2884,38.65,84,93,149396
1.7546,0.2884,38.71,84,93,149399
1.7937,0.2981,38.55,84,93,149402
1.7889,0.2933,38.71,84,93,149406
1.8231,0.2981,38.46,84,93,149409
1.7986,0.303,38.65,84,93,149412
1.8084,0.2933,38.71,84,93,149415
1.784,0.2981,38.68,84,93,149420
1.7595,0.2884,38.71,84,93,149423
1.7937,0.303,38.43,84,93,149426
1.74,0.2933,38.65,84,93,149430
1.74,0.2933,38.71,84,93,149433
1.74,0.2981,38.77,84,93,149436
1.7351,0.2933,38.71,84,93,149440
1.7986,0.3079,38.46,84,93,149443
1.7644,0.303,38.65,84,93,149446
1.7546,0.2933,38.65,84,93,149449
1.7546,0.2981,38.81,84,93,149453
1.74,0.2933,38.71,84,93,149456
1.784,0.303,38.52,84,93,149459
1.7791,0.2981,38.55,84,93,149464
1.8719,0.2933,38.58,84,93,149467
1.9648,0.2933,38.81,84,93,149470
2.1212,0.2933,38.68,84,93,149474
2.2874,0.303,38.62,84,93,149477
2.3412,0.347,38.74,84,93,149480
2.3851,0.2981,38.58,84,93,149484
2.3021,0.2933,38.93,84,93,149487
2.2092,0.2933,38.71,84,93,149490
2.0186,0.2981,38.9,84,93,149494
1.828,0.2933,38.68,84,93,149497
1.6569,0.2933,38.52,84,93,149500
1.437,0.2933,38.74,84,93,149504
1.2561,0.2884,38.71,84,93,149508
1.1241,0.2981,38.93,84,93,149511
1.0459,0.2933,38.74,84,93,149514
1.0704,0.303,38.46,84,93,149518
1.1681,0.2981,38.62,84,93,149521
1.3196,0.2933,38.71,84,93,149524
1.5103,0.303,38.62,84,93,149528
1.6325,0.2933,38.74,84,93,149531
1.7644,0.2884,38.43,84,93,149534
1.7889,0.3079,38.62,84,93,149538
1.8182,0.2884,38.68,84,93,149541
1.8328,0.2933,38.68,84,93,149544
1.8328,0.303,38.71,84,93,149548
1.9208,0.3128,38.49,84,93,149552
1.8817,0.2981,38.77,84,93,149555
1.8964,0.2884,38.62,84,93,149558
1.9159,0.2933,38.71,84,93,149562
1.9404,0.2933,38.68,84,93,149565
1.9941,0.3079,38.62,84,93,149568
1.9599,0.2981,38.68,84,93,149572
1.9501,0.2933,38.55,84,93,149575
1.9062,0.2933,38.74,84,93,149578
1.9013,0.2933,38.74,84,93,149581
1.9257,0.3079,38.55,84,93,149585
1.9013,0.2933,38.68,84,93,149588
1.9306,0.2981,38.58,84,93,149592
1.8915,0.2884,38.58,84,93,149596
1.8915,0.2933,38.71,84,93,149599
1.911,0.303,38.62,84,93,149602
1.8964,0.2933,38.71,84,93,149606
1.9306,0.2981,38.49,84,93,149609
1.8915,0.2981,38.65,84,93,149612
1.8866,0.2933,38.71,84,93,149616
1.9013,0.303,38.62,84,93,149619
1.8964,0.2884,38.74,84,93,149622
1.9697,0.303,38.43,84,93,149625
1.9355,0.2835,38.65,84,93,149629
1.9306,0.2688,38.71,84,93,149633
1.9159,0.2981,38.71,84,93,149636
1.9013,0.2933,38.71,84,93,149640
1.9599,0.3079,38.52,84,93,149643
1.9208,0.303,38.68,84,93,149646
1.8964,0.2884,38.65,84,93,149650
1.8768,0.2933,38.62,84,93,149653
1.8475,0.2933,38.71,84,93,149656
1.8817,0.303,38.52,84,93,149660
1.8524,0.303,38.65,84,93,149663
1.8426,0.2933,38.58,84,93,149666
1.8328,0.2933,38.68,84,93,149669
1.8426,0.2933,38.71,84,93,149673
1.8866,0.303,38.77,84,93,149677
1.8768,0.2933,38.74,84,93,149680
1.9013,0.2884,38.55,84,93,149684
1.8671,0.2933,38.71,84,93,149687
1.8475,0.2933,38.71,84,93,149690
1.8475,0.2981,38.65,84,93,149694
1.8231,0.303,38.71,84,93,149697
1.8426,0.2981,38.55,84,93,149700
1.8084,0.2884,38.71,84,93,149704
1.8133,0.2933,38.71,84,93,149707
1.8524,0.2981,38.49,84,93,149710
1.8475,0.2933,38.68,84,93,149713
1.8915,0.303,38.46,84,93,149718
1.8866,0.303,38.58,84,93,149721
1.8817,0.2933,38.71,84,93,149724
1.9013,0.3372,38.62,84,93,149728
1.8671,0.2933,38.71,84,93,149731
1.8866,0.3079,38.43,84,93,149734
1.8475,0.2933,38.62,84,93,149738
1.8426,0.2884,38.68,84,93,149741
1.8622,0.303,38.65,84,93,149744
1.8671,0.2933,38.71,84,93,149748
1.9208,0.3128,38.49,84,93,149751
1.9013,0.303,38.65,84,93,149754
1.9062,0.2933,38.62,84,93,149757
1.9062,0.2933,38.68,84,93,149762
1.9013,0.303,38.71,84,93,149765
1.9404,0.3079,38.58,84,93,149768
1.911,0.2933,38.62,84,93,149772
1.9355,0.3275,38.55,84,93,149775
1.9208,0.2933,38.74,84,93,149778
1.9208,0.2933,38.71,84,93,149782
1.9599,0.303,38.55,84,93,149785
1.9306,0.2933,38.68,84,93,149788
1.955,0.303,38.58,84,93,149792
1.9159,0.2884,37.9,84,93,149795
1.8964,0.2933,38.65,84,93,149798
1.8915,0.2981,38.58,84,93,149801
1.8671,0.2933,38.58,84,93,149806
1.8915,0.2933,38.49,84,93,149809
1.8524,0.2933,38.71,84,93,149812
1.8328,0.2933,38.71,84,93,149816
1.8328,0.303,37.96,84,93,149819
1.8035,0.3275,38.71,84,93,149822
1.8524,0.303,38.46,84,93,149826
1.8182,0.2933,38.65,84,93,149829
1.828,0.2884,38.71,84,93,149832
1.8475,0.2981,38.68,84,93,149836
1.8182,0.2933,38.71,84,93,149839
1.8524,0.3079,38.4,84,93,149842
1.8133,0.303,38.58,84,93,149846
1.8231,0.2933,38.68,84,93,149850
1.8182,0.2981,38.68,84,93,149853
1.8084,0.2981,38.68,84,93,149856
1.8524,0.3079,38.52,84,93,149860
1.8133,0.2981,38.71,84,93,149863
1.8084,0.2933,38.58,84,93,149866
1.8084,0.2933,38.77,84,93,149870
1.8182,0.2884,38.68,84,93,149873
1.8524,0.303,38.58,84,93,149876
1.8377,0.2981,38.71,84,93,149879
1.8573,0.2981,38.58,84,93,149883
1.8377,0.2933,38.68,84,93,149886
1.8231,0.2884,38.84,84,93,149890
1.8622,0.303,38.65,84,93,149894
1.8133,0.2933,38.71,84,93,149897
1.8426,0.3226,38.55,84,93,149900
1.8133,0.2933,38.65,84,93,149904
1.8133,0.2933,38.68,84,93,149907
1.8328,0.303,38.84,84,93,149910
1.8768,0.2981,38.68,84,93,149915
1.8719,0.303,38.71,84,93,149918
1.8671,0.3079,38.4,84,93,149922
1.8182,0.303,38.58,84,93,149925
1.8084,0.2933,38.68,84,93,149928
1.8133,0.2981,38.77,84,93,149933
1.8231,0.2933,38.71,84,93,149936
1.8817,0.3079,38.52,84,93,149939
1.8622,0.2981,38.65,84,93,149942
1.8671,0.2933,38.58,84,93,149946
1.8524,0.2933,38.77,84,93,149949
1.8622,0.2933,38.71,84,93,149952
1.8573,0.3079,38.02,84,93,149956
1.8231,0.303,38.65,84,93,149959
1.8524,0.2933,38.55,84,93,149962
1.8231,0.2933,38.71,84,93,149966
1.8377,0.2884,38.74,84,93,149969
1.8671,0.2981,38.65,84,93,149972
1.8475,0.2884,38.68,84,93,149977
1.8524,0.2933,38.55,84,93,149980
1.828,0.2933,38.62,84,93,149983
1.8377,0.2933,38.71,84,93,149986
1.8719,0.2688,38.55,84,93,149990
1.8328,0.2933,38.68,84,93,149993
1.8524,0.3177,38.49,84,93,149996
1.8084,0.2981,38.65,84,93,150000
1.7937,0.2933,38.84,84,93,150003
1.8182,0.2981,38.68,84,93,150006
1.8133,0.2933,38.68,84,93,150010
1.8866,0.3421,38.4,84,93,150013
1.8866,0.2933,38.62,84,93,150017
1.9208,0.2786,38.68,84,93,150021
1.9404,0.2981,38.68,84,93,150024
1.9453,0.2981,38.74,84,93,150027
1.9941,0.3079,38.49,84,93,150031
1.9404,0.2981,38.65,84,93,150034
1.9257,0.2933,38.62,84,93,150037
1.9159,0.2981,38.65,84,93,150040
1.9159,0.2981,38.71,84,93,150044
1.9453,0.303,38.52,84,93,150047
1.9062,0.3079,38.65,84,93,150050
1.9062,0.2933,38.55,84,93,150054
1.8573,0.2933,38.9,84,93,150057
1.828,0.3128,38.71,84,93,150061
1.828,0.303,38.58,84,93,150065
1.784,0.2933,38.71,84,93,150068
1.7986,0.303,38.68,84,93,150071
1.7742,0.2933,38.68,84,93,150074
1.7742,0.2933,38.68,84,93,150078
1.7986,0.303,38.62,84,93,150081
1.7986,0.2933,38.68,84,93,150084
1.8231,0.303,38.52,84,93,150088
1.7937,0.2933,38.71,84,93,150091
1.7791,0.2933,38.71,84,93,150094
1.7889,0.303,38.62,84,93,150098
1.7498,0.2933,38.71,84,93,150102
1.7791,0.303,38.43,84,93,150105
1.7644,0.2981,38.71,84,93,150109
1.7644,0.2884,38.71,84,93,150112
1.7937,0.2981,38.62,84,93,150115
1.7937,0.2981,38.71,84,93,150119
1.8377,0.3079,38.43,84,93,150122
1.7889,0.2933,38.58,84,93,150125
1.7546,0.2884,38.65,84,93,150128
1.7449,0.2933,38.87,84,93,150132
1.7351,0.2933,38.68,84,93,150135
1.784,0.3128,38.49,84,93,150138
1.7498,0.2981,38.68,84,93,150142
1.7498,0.2933,38.62,84,93,150146
1.7449,0.2884,38.68,84,93,150149
1.784,0.2933,38.74,84,93,150153
1.911,0.3079,38.68,84,93,150156
2.0479,0.2933,38.68,84,93,150159
2.2385,0.2981,38.58,84,93,150163
2.3363,0.2933,38.74,84,93,150166
2.4047,0.2933,38.68,84,93,150169
2.4438,0.303,38.55,84,93,150172
2.3314,0.2933,38.68,84,93,150176
2.219,0.2933,38.55,84,93,150179
2.0283,0.2933,38.62,84,93,150182
1.8328,0.2884,38.71,84,93,150187
1.6422,0.2933,38.55,84,93,150190
1.4223,0.2933,38.71,84,93,150193
1.2708,0.303,38.43,84,93,150197
1.1437,0.2981,38.68,84,93,150200
1.0508,0.2933,38.71,84,93,150203
1.085,0.3128,38.65,84,93,150207
1.1828,0.2884,38.71,84,93,150210
1.3441,0.303,38.43,84,93,150213
1.4712,0.2835,38.65,84,93,150216
1.6031,0.2884,38.71,84,93,150220
1.7009,0.3177,38.65,84,93,150223
1.7595,0.2933,38.71,84,93,150226
1.8671,0.3079,38.49,84,93,150231
1.8622,0.303,38.65,84,93,150234
1.8866,0.2688,38.62,84,93,150237
1.9062,0.2933,38.68,84,93,150241
1.9159,0.2933,38.71,84,93,150244
1.9453,0.303,38.46,84,93,150247
1.9159,0.2933,38.65,84,93,150251
1.9306,0.2981,38.68,84,93,150254
1.9208,0.2981,38.71,84,93,150257
1.9257,0.2688,38.71,84,93,150260
1.9453,0.2933,38.58,84,93,150264
1.9208,0.2981,38.71,84,93,150267
1.9355,0.303,38.58,84,93,150270
1.8964,0.3177,38.68,84,93,150275
1.9062,0.2933,38.74,84,93,150278
1.9306,0.3324,38.58,84,93,150281
1.9404,0.2933,38.71,84,93,150285
1.9746,0.2981,38.55,84,93,150288
1.9306,0.2884,38.71,84,93,150291
1.911,0.2884,38.71,84,93,150295
1.8915,0.2933,38.65,84,93,150298
1.8573,0.2933,38.71,84,93,150301
1.8866,0.3275,38.46,84,93,150304
1.8573,0.2981,38.62,84,93,150308
1.8475,0.2933,38.33,84,93,150311
1.8671,0.2981,38.65,84,93,150315
1.8524,0.2933,38.84,84,93,150319
1.911,0.3079,38.43,84,93,150322
1.8768,0.2981,38.58,84,93,150325
1.8719,0.2884,38.65,84,93,150329
1.8915,0.2981,38.71,84,93,150332
1.8964,0.2933,38.71,84,93,150335
1.9501,0.303,38.52,84,93,150339
1.8915,0.2981,38.68,84,93,150342
1.8817,0.2933,38.62,84,93,150345
1.8573,0.2884,38.71,84,93,150348
1.8524,0.2933,38.71,84,93,150352
1.8719,0.303,38.65,84,93,150355
1.8426,0.2933,38.71,84,93,150359
1.8719,0.2933,38.55,84,93,150363
1.8377,0.2835,38.71,84,93,150366
1.8475,0.2933,38.74,84,93,150369
1.8817,0.303,38.62,84,93,150373
1.8622,0.2981,38.71,84,93,150376
1.8768,0.2981,38.52,84,93,150379
1.8671,0.2884,38.62,84,93,150383
1.8866,0.2884,38.74,84,93,150386
1.9257,0.2884,38.55,84,93,150389
1.9013,0.2933,38.71,84,93,150393
1.9013,0.3128,38.43,84,93,150396
1.828,0.2933,38.62,84,93,150400
1.7937,0.2884,38.74,84,93,150403
1.7889,0.303,38.65,84,93,150407
1.7693,0.2884,38.71,84,93,150410
1.8328,0.3079,38.52,84,93,150413
1.8035,0.2981,38.65,84,93,150417
1.8035,0.2884,38.68,84,93,150420
1.8133,0.2981,38.74,84,93,150423
1.8231,0.2933,38.71,84,93,150427
1.8964,0.3079,38.49,84,93,150430
1.8719,0.2884,38.68,84,93,150433
1.8964,0.2933,38.62,84,93,150436
1.9159,0.2884,38.65,84,93,150440
1.9159,0.2933,38.74,84,93,150444
1.9599,0.3177,38.52,84,93,150447
1.9501,0.2981,38.68,84,93,150451
1.9844,0.2981,38.58,84,93,150454
2.0088,0.2933,38.68,84,93,150457
2.0235,0.2933,38.68,84,93,150461
2.0577,0.3275,38.52,84,93,150464
2.0479,0.2981,38.68,84,93,150467
1.999,0.303,38.62,84,93,150471
1.9208,0.2933,38.68,84,93,150474
1.8866,0.2884,38.81,84,93,150477
1.8768,0.2981,38.62,84,93,150480
1.8622,0.2933,38.68,84,93,150484
1.9013,0.303,38.52,84,93,150488
1.8768,0.2933,38.81,84,93,150491
1.8866,0.2933,38.71,84,93,150495
1.9062,0.303,38.62,84,93,150498
1.8622,0.2933,38.71,84,93,150501
1.8671,0.303,38.46,84,93,150505
1.8035,0.2981,38.62,84,93,150508
1.7889,0.2933,38.71,84,93,150511
1.8035,0.2981,38.65,84,93,150515
1.7986,0.303,38.68,84,93,150518
1.8671,0.2884,38.4,84,93,150521
1.8573,0.303,38.68,85,93,150526
1.8377,0.2933,38.74,85,93,150530
1.8573,0.2933,38.55,85,93,150533
1.8426,0.2933,38.71,85,93,150537
1.8426,0.2884,38.71,85,93,150540
1.8524,0.347,38.65,85,93,150543
1.8671,0.2933,38.68,85,93,150547
1.8475,0.2981,38.71,85,93,150550
1.8084,0.2933,38.71,85,93,150553
1.8035,0.2933,38.77,85,93,150557
1.8377,0.2933,38.58,85,93,150560
1.8328,0.2933,38.81,85,93,150563
1.8719,0.3079,38.49,85,93,150567
1.8622,0.2933,38.62,85,93,150571
1.8524,0.2933,38.71,85,93,150574
1.8719,0.303,38.58,85,93,150578
1.8377,0.2933,38.71,85,93,150581
1.9013,0.303,38.43,85,93,150584
1.8133,0.2933,38.96,85,93,150587
1.8035,0.2933,38.71,85,93,150591
1.8035,0.2981,38.71,85,93,150594
1.7986,0.2933,38.74,85,93,150597
1.8915,0.3128,38.43,85,93,150601
1.8426,0.2981,38.65,85,93,150604
1.8524,0.2933,38.65,85,93,150607
1.8768,0.2933,38.68,85,93,150611
1.8768,0.2884,38.71,85,93,150615
1.9208,0.3079,37.87,85,93,150618
1.8719,0.2981,38.65,85,93,150622
1.8475,0.2884,38.58,85,93,150625
1.8182,0.2884,38.68,85,93,150628
1.8084,0.2933,38.71,85,93,150631
1.828,0.303,38.58,85,93,150635
1.7986,0.2981,38.71,85,93,150638
1.8231,0.303,38.58,85,93,150641
1.8035,0.2884,38.68,85,93,150645
1.8133,0.2933,38.71,85,93,150648
1.8475,0.2981,38.58,85,93,150651
1.8573,0.2933,38.74,85,93,150656
1.9355,0.2884,38.55,85,93,150659
1.9257,0.2933,38.65,85,93,150662
1.9062,0.2884,38.71,85,93,150666
1.8671,0.2981,38.65,85,93,150669
1.8084,0.2933,38.74,85,93,150672
1.8231,0.303,38.46,85,93,150675
1.7693,0.3177,38.65,85,93,150679
1.7644,0.2884,38.74,85,93,150682
1.7937,0.2981,38.58,85,93,150685
1.7937,0.2933,38.71,85,93,150689
1.8475,0.3079,38.58,85,93,150692
1.8231,0.3128,38.58,85,93,150695
1.8231,0.2884,38.68,85,93,150700
1.8328,0.303,38.65,85,93,150703
1.8328,0.2933,38.68,85,93,150706
1.9013,0.3079,38.58,85,93,150710
1.8768,0.2884,38.62,85,93,150713
1.8866,0.2933,38.65,85,93,150716
1.8671,0.2933,38.62,85,93,150719
1.8524,0.2688,38.71,85,93,150723
1.8426,0.303,38.58,85,93,150726
1.7986,0.2884,38.68,85,93,150729
1.8035,0.2981,38.55,85,93,150733
1.7791,0.2933,38.62,85,93,150736
1.784,0.2933,38.74,85,93,150739
1.8084,0.2981,38.71,85,93,150744
1.8035,0.303,38.71,85,93,150747
1.8475,0.2981,38.58,85,93,150750
1.8426,0.2981,38.71,85,93,150754
1.8915,0.2933,38.71,85,93,150757
1.9062,0.303,38.55,85,93,150760
1.8768,0.2933,38.71,85,93,150763
1.8915,0.2981,38.52,85,93,150767
1.8524,0.2933,38.58,85,93,150770
1.8328,0.2933,38.71,85,93,150773
1.8573,0.2933,38.62,85,93,150777
1.8426,0.2884,38.71,85,93,150780
1.9257,0.3079,38.46,85,93,150784
1.9208,0.2933,38.62,85,93,150788
1.9404,0.2933,38.81,85,93,150791
1.9648,0.2933,38.65,85,93,150794
1.955,0.2933,38.71,85,93,150798
1.999,0.3079,38.46,85,93,150801
1.9404,0.2981,38.65,85,93,150804
1.9208,0.2933,38.77,85,93,150808
1.9013,0.303,38.68,85,93,150811
1.8719,0.2933,38.74,85,93,150814
1.9306,0.2981,38.55,85,93,150817
1.8475,0.2981,38.68,85,93,150821
1.8377,0.2981,38.55,85,93,150824
1.8035,0.2933,38.71,85,93,150828
1.7889,0.2933,38.71,85,93,150832
1.8231,0.303,38.52,85,93,150835
1.7937,0.3177,38.65,85,93,150838
1.8475,0.3079,38.58,85,93,150842
1.8182,0.2884,38.68,85,93,150845
1.828,0.2933,38.74,85,93,150848
1.8573,0.303,38.58,85,93,150852
1.7937,0.2933,38.68,85,93,150855
1.7889,0.2933,38.52,85,93,150858
1.7546,0.2933,38.65,85,93,150861
1.7351,0.2933,38.71,85,93,150865
1.7693,0.2688,38.62,85,93,150868
1.7449,0.2933,37.96,85,93,150872
1.8133,0.2933,38.46,85,93,150876
1.8084,0.2884,38.65,85,93,150879
1.8231,0.2933,38.71,85,93,150882
1.8231,0.2981,38.65,85,93,150886
1.7693,0.2933,38.71,85,93,150889
1.7889,0.3079,38.43,85,93,150892
1.7351,0.3226,38.62,85,93,150896
1.7204,0.2933,38.65,85,93,150899
1.7253,0.3079,38.71,85,93,150902
1.7302,0.2981,38.71,85,93,150905
1.8084,0.3079,38.52,85,93,150909
1.8475,0.303,38.65,85,93,150913
1.9697,0.2884,38.62,85,93,150916
2.1163,0.2933,38.93,85,93,150920
2.263,0.2884,38.68,85,93,150923
2.4047,0.303,38.55,85,93,150926
2.4145,0.3177,38.68,85,93,150930
2.4145,0.303,38.55,85,93,150933
2.2532,0.2933,38.71,85,93,150936
2.0821,0.2933,38.68,85,93,150940
1.8719,0.2933,38.65,85,93,150943
1.6422,0.2933,38.74,85,93,150946
1.4516,0.2933,38.58,85,93,150949
1.2512,0.3226,38.71,85,93,150953
1.1193,0.2688,38.74,85,93,150957
1.0606,0.2981,38.65,85,93,150960
1.0508,0.2884,38.68,85,93,150964
1.1437,0.2981,38.52,85,93,150967
1.3001,0.2933,38.62,85,93,150970
1.5152,0.2884,38.71,85,93,150974
1.7009,0.3079,38.62,85,93,150977
1.784,0.303,38.71,85,93,150980
1.8915,0.303,38.43,85,93,150984
1.8426,0.2933,38.58,85,93,150987
1.8377,0.2933,38.71,85,93,150990
1.8475,0.2981,38.68,85,93,150993
1.8524,0.2933,38.71,85,93,150998
1.9257,0.3128,38.43,85,93,151001
1.8817,0.2933,38.65,85,93,151004
1.8866,0.2884,38.65,85,93,151008
1.8817,0.2981,38.77,85,93,151011
1.8866,0.2933,38.71,85,93,151014
1.9501,0.3079,38.62,85,93,151018
1.9453,0.2981,38.68,85,93,151021
1.9599,0.2981,38.58,85,93,151024
1.9355,0.2884,38.68,85,93,151028
1.9257,0.2933,38.74,85,93,151031
1.9404,0.2933,38.55,85,93,151034
1.9013,0.2933,38.58,85,93,151038
1.9208,0.303,38.58,85,93,151042
1.9062,0.2933,38.65,85,93,151045
1.8915,0.2884,38.71,85,93,151048
1.8964,0.303,38.58,85,93,151052
1.8866,0.2933,38.71,85,93,151055
1.9306,0.2981,38.52,85,93,151058
1.9453,0.2981,38.62,85,93,151062
1.9697,0.2933,38.71,85,93,151065
1.9795,0.303,38.62,85,93,151068
1.9599,0.2933,38.71,85,93,151072
1.9355,0.303,38.52,85,93,151075
1.8671,0.2933,38.71,85,93,151078
1.8622,0.2884,38.74,85,93,151083
1.8719,0.2933,38.65,85,93,151086
1.8622,0.2933,38.71,85,93,151089
1.9062,0.2933,38.43,85,93,151092
1.8622,0.2981,38.68,85,93,151096
1.8475,0.2884,38.65,85,93,151099
1.8622,0.2884,38.68,85,93,151102
1.8671,0.2933,38.93,85,93,151106
1.9355,0.3079,38.49,85,93,151109
1.9013,0.2981,38.58,85,93,151112
1.8964,0.2835,38.68,85,93,151116
1.8915,0.2884,38.71,85,93,151119
1.8964,0.303,38.68,85,93,151122
1.9208,0.303,38.55,85,93,151127
1.8817,0.2981,38.74,85,93,151130
1.8866,0.3372,38.62,85,93,151133
1.8622,0.2933,38.71,85,94,151136
1.8377,0.2933,38.71,85,94,151141
1.8475,0.2835,38.71,85,94,151144
1.8817,0.2981,38.65,85,94,151148
1.8768,0.2933,38.71,85,94,151151
1.9208,0.303,38.46,85,94,151154
1.8817,0.2981,38.21,85,94,151158
1.8573,0.303,38.74,85,94,151161
1.8671,0.2981,38.71,85,94,151164
1.8573,0.2884,38.71,85,94,151169
1.9257,0.3079,38.46,85,94,151172
1.911,0.3226,38.62,85,94,151175
1.9208,0.2933,38.65,85,94,151179
1.9355,0.2981,38.68,85,94,151182
1.9355,0.2884,38.74,85,94,151185
1.9795,0.3079,38.55,85,94,151188
1.9453,0.2981,38.74,85,94,151192
1.955,0.2981,38.58,85,94,151195
1.955,0.2933,38.68,85,94,151198
1.9599,0.2933,38.68,85,94,151202
1.9892,0.303,38.65,85,94,151205
1.9648,0.2933,37.9,85,94,151208
1.9795,0.3275,38.52,85,94,151213
1.9453,0.2933,38.71,85,94,151216
1.9404,0.3226,38.71,85,94,151219
1.9746,0.303,38.55,85,94,151223
1.9501,0.2981,38.68,85,94,151226
1.999,0.2933,38.55,85,94,151229
1.9208,0.2933,38.62,85,94,151232
1.8866,0.2933,38.68,85,94,151236
1.8768,0.2981,38.55,85,94,151239
1.8328,0.2933,38.71,85,94,151242
1.8964,0.303,38.49,85,94,151246
1.8475,0.2981,38.71,85,94,151249
1.8426,0.2933,38.71,85,94,151252
1.8573,0.2884,38.65,85,94,151257
1.8182,0.2933,38.74,85,94,151260
1.8524,0.3128,38.43,85,94,151263
1.8084,0.2933,38.55,85,94,151267
1.8133,0.2933,38.68,85,94,151270
1.828,0.2981,38.68,85,94,151273
1.828,0.2933,38.71,85,94,151276
1.8817,0.3128,38.46,85,94,151280
1.8377,0.2981,38.62,85,94,151283
1.8231,0.2933,38.62,85,94,151286
1.8084,0.2933,38.68,85,94,151290
1.8035,0.2884,38.71,85,94,151293
1.8573,0.303,38.58,85,94,151297
1.8524,0.2981,38.65,85,94,151301
1.8377,0.2981,38.55,85,94,151304
1.8035,0.2933,38.68,85,94,151307
1.7889,0.2884,38.71,85,94,151311
1.8231,0.303,38.58,85,94,151314
1.8084,0.3226,38.71,85,94,151317
1.8328,0.2981,38.62,85,94,151320
1.8133,0.2933,38.68,85,94,151324
1.8231,0.303,38.71,85,94,151327
1.8426,0.2981,38.65,85,94,151330
1.8475,0.2933,38.68,85,94,151334
1.8768,0.303,38.52,85,94,151337
1.8426,0.2933,38.96,85,94,151341
1.8377,0.2981,38.71,85,94,151345
1.8573,0.303,38.68,85,94,151348
1.8377,0.2981,38.71,85,94,151351
1.8866,0.303,38.46,85,94,151355
1.8719,0.2981,38.58,85,94,151358
1.8915,0.2933,38.74,85,94,151361
1.9013,0.2981,38.52,85,94,151364
1.8719,0.2933,38.71,85,94,151368
1.9013,0.3079,38.43,85,94,151371
1.8426,0.2835,38.58,85,94,151374
1.8035,0.2884,38.68,85,94,151378
1.7937,0.2981,38.74,85,94,151382
1.7889,0.2884,38.71,85,94,151385
1.8573,0.3079,38.52,85,94,151389
1.828,0.2981,38.65,85,94,151392
1.8377,0.303,38.62,85,94,151395
1.8231,0.2933,38.71,85,94,151399
1.828,0.2981,38.71,85,94,151402
1.8719,0.303,38.62,85,94,151405
1.8622,0.2981,38.68,85,94,151408
1.9208,0.2933,38.55,85,94,151412
1.8573,0.2933,38.71,85,94,151415
1.8817,0.2933,38.71,85,94,151418
1.8817,0.303,38.52,85,94,151422
1.8475,0.2884,38.71,85,94,151426
1.8671,0.2933,38.58,85,94,151429
1.8524,0.2981,38.62,85,94,151433
1.8182,0.2933,38.71,85,94,151436
1.8573,0.303,38.49,85,94,151439
1.828,0.2688,38.74,85,94,151443
1.8719,0.303,38.52,85,94,151446
1.8671,0.303,38.65,85,94,151449
1.8377,0.2884,38.71,85,94,151452
1.8524,0.2981,38.68,85,94,151456
1.8328,0.2933,38.74,85,94,151459
1.8964,0.3079,38.43,85,94,151462
1.8475,0.2933,38.65,85,94,151467
1.8377,0.2884,38.68,85,94,151470
1.8426,0.2981,38.77,85,94,151473
1.8573,0.2933,38.74,85,94,151477
1.9062,0.3079,37.77,85,94,151480
1.8817,0.2981,38.65,85,94,151483
1.8866,0.2933,38.65,85,94,151487
1.9062,0.2933,38.68,85,94,151490
1.9257,0.2688,38.71,85,94,151493
1.9795,0.303,38.9,85,94,151496
1.9599,0.2981,38.71,85,94,151500
1.9599,0.2981,38.58,85,94,151503
1.9355,0.2933,38.68,85,94,151506
1.9159,0.2884,38.71,85,94,151511
1.9257,0.303,38.55,85,94,151514
1.8768,0.2933,38.68,85,94,151517
1.8817,0.303,38.62,85,94,151521
1.8328,0.2933,38.9,85,94,151524
1.8231,0.2933,38.71,85,94,151527
1.8231,0.303,38.68,85,94,151531
1.7937,0.2981,38.71,85,94,151534
1.8035,0.303,38.52,85,94,151537
1.7546,0.2933,38.74,85,94,151540
1.7595,0.3079,38.71,85,94,151544
1.7937,0.303,38.62,85,94,151547
1.7742,0.2884,38.71,85,94,151550
1.8133,0.2981,38.46,85,94,151555
1.784,0.2981,38.58,85,94,151558
1.7595,0.3226,38.74,85,94,151561
1.7693,0.303,38.65,85,94,151565
1.74,0.2933,38.74,85,94,151568
1.7791,0.3128,38.43,85,94,151571
1.74,0.2981,38.52,85,94,151575
1.7253,0.2981,38.68,85,94,151578
1.7351,0.2981,38.68,85,94,151581
1.7449,0.2933,38.71,85,94,151584
1.8231,0.2981,38.49,85,94,151588
1.7889,0.2981,38.62,85,94,151591
1.8133,0.2884,38.62,85,94,151595
1.7546,0.2933,38.71,85,94,151599
1.7449,0.2884,38.71,85,94,151602
1.7742,0.303,38.62,85,94,151605
1.7498,0.2981,38.71,85,94,151609
1.7742,0.2981,38.55,85,94,151612
1.7889,0.2884,38.74,85,94,151615
1.8768,0.2884,38.71,85,94,151619
2.043,0.3079,38.71,85,94,151622
2.1701,0.2933,38.68,85,94,151625
2.3265,0.2688,38.58,85,94,151628
2.3607,0.2933,38.71,85,94,151632
2.3754,0.2835,38.71,85,94,151635
2.3265,0.2981,38.65,85,94,151639
2.1359,0.2981,38.71,85,94,151643
1.9795,0.2981,38.49,85,94,151646
1.7546,0.2933,38.62,85,94,151649
1.5494,0.2933,38.71,85,94,151653
1.3685,0.2981,38.62,85,94,151656
1.1975,0.2933,38.74,85,94,151659
1.1095,0.303,38.46,85,94,151663
1.0655,0.2933,38.65,85,94,151666
1.1046,0.2933,38.68,85,94,151669
1.2317,0.303,38.68,85,94,151672
1.3734,0.2981,38.71,85,94,151676
1.5689,0.3128,38.46,85,94,151680
1.6667,0.2981,38.71,85,94,151683
1.7498,0.2933,38.65,85,94,151687
1.8231,0.2981,38.71,85,94,151690
1.9062,0.2884,38.71,85,94,151693
1.9404,0.3079,38.62,85,94,151697
1.9208,0.303,38.71,85,94,151700
1.9306,0.2981,38.58,85,94,151703
1.9062,0.2933,38.71,85,94,151707
1.9159,0.2933,38.71,85,94,151710
1.9355,0.303,38.65,85,94,151713
1.9159,0.2933,38.93,85,94,151716
1.9355,0.3079,38.55,85,94,151720
1.9062,0.2933,38.71,85,94,151724
1.9062,0.2981,38.71,85,94,151727
1.9208,0.2933,38.65,85,94,151731
1.9159,0.2933,38.74,85,94,151734
1.9404,0.2688,38.52,85,94,151737
1.9208,0.2981,38.71,85,94,151741
1.9355,0.2933,38.71,85,94,151744
1.9501,0.2981,38.65,85,94,151747
1.8866,0.303,38.65,85,94,151752
1.8817,0.2933,38.74,85,94,151755
1.9404,0.3128,38.46,85,94,151759
1.9159,0.303,38.71,85,94,151762
1.9013,0.2933,38.62,85,94,151766
1.9062,0.2933,38.68,85,94,151770
1.9355,0.2933,38.71,85,94,151773
1.9648,0.303,38.55,85,94,151776
1.9355,0.303,38.68,85,94,151779
1.9453,0.2981,38.58,85,94,151783
1.911,0.2933,38.74,85,94,151786
1.8915,0.2933,38.71,85,94,151789
1.9013,0.2981,38.77,85,94,151793
1.8768,0.303,38.68,85,94,151796
1.9062,0.2884,38.58,85,94,151799
1.8817,0.2981,38.71,85,94,151803
1.8964,0.2933,38.68,85,94,151806
1.9306,0.303,38.62,85,94,151810
1.9159,0.2688,38.71,85,94,151814
1.9306,0.2981,38.62,85,94,151817
1.8964,0.2933,38.62,85,94,151820
1.8622,0.2884,38.71,85,94,151823
1.8671,0.2981,38.55,85,94,151827
1.828,0.2933,38.71,85,94,151830
1.8573,0.3324,38.46,85,94,151833
1.828,0.2933,38.65,85,94,151837
1.8133,0.2933,38.77,85,94,151840
1.8231,0.2981,38.68,85,94,151843
1.8133,0.2933,38.81,85,94,151847
1.8768,0.3128,38.43,85,94,151851
1.8524,0.2981,38.62,85,94,151854
1.8719,0.2933,38.65,85,94,151858
1.8768,0.2933,38.84,85,94,151861
1.8768,0.2933,38.71,85,94,151864
1.9159,0.3079,38.52,85,94,151868
1.8768,0.303,38.74,85,94,151871
1.8866,0.2933,38.58,85,94,151874
1.8719,0.3226,38.71,85,94,151877
1.8817,0.2884,38.71,85,94,151881
1.911,0.303,38.52,85,94,151884
1.8915,0.2884,38.68,85,94,151887
1.9257,0.303,38.55,85,94,151891
1.9208,0.2933,38.71,85,94,151895
1.9404,0.2981,38.71,85,94,151898
1.9795,0.2933,38.58,85,94,151902
1.9599,0.2835,38.68,85,94,151905
1.9844,0.2933,38.52,85,94,151908
1.9453,0.2933,38.65,85,94,151912
1.9501,0.2933,38.68,85,94,151915
1.9599,0.2981,38.58,85,94,151918
1.9453,0.2981,38.71,85,94,151921
1.9844,0.303,38.49,85,94,151925
1.9404,0.2933,38.71,85,94,151928
1.9453,0.2884,38.68,85,94,151931
1.9404,0.3079,38.65,85,94,151936
1.9062,0.2933,38.71,85,94,151939
1.9306,0.3079,38.4,85,94,151942
1.8817,0.2981,38.62,85,94,151946
1.8719,0.2884,38.68,85,94,151949
1.8719,0.303,38.68,85,94,151952
1.8426,0.2884,38.71,85,94,151956
1.8768,0.3079,38.49,85,94,151959
1.828,0.2981,38.62,85,94,151962
1.8035,0.2933,38.62,85,94,151965
1.7937,0.2933,38.68,85,94,151969
1.7986,0.2884,38.74,85,94,151972
1.8377,0.303,38.52,85,94,151975
1.8524,0.2981,38.68,85,94,151980
1.8573,0.2981,38.58,85,94,151983
1.8377,0.2933,38.74,85,94,151986
1.8182,0.2884,38.71,85,94,151990
1.8133,0.2981,38.68,85,94,151993
1.8084,0.2981,38.68,85,94,151996
1.8182,0.303,38.58,85,94,151999
1.7937,0.3275,38.71,85,94,152003
1.8182,0.2884,38.71,85,94,152006
1.8524,0.303,38.52,85,94,152009
1.828,0.2884,38.71,85,94,152013
1.8622,0.2981,38.43,85,94,152016
1.828,0.2981,38.58,85,94,152019
1.8084,0.2933,38.68,85,94,152024
1.8231,0.2981,38.58,85,94,152027
1.8084,0.2688,38.71,85,94,152030
1.8573,0.303,38.46,85,94,152034
1.8377,0.3177,38.62,85,94,152037
1.8475,0.2884,38.71,85,94,152040
1.8622,0.2981,38.77,85,94,152043
1.8524,0.2933,38.68,85,94,152047
1.911,0.3079,38.4,85,94,152050
1.8719,0.2981,38.62,85,94,152053
1.8524,0.2884,38.68,85,94,152057
1.8377,0.2981,38.58,85,94,152060
1.8133,0.2933,38.68,85,94,152064
1.8573,0.3079,38.81,85,94,152068
1.8231,0.303,38.62,85,94,152071
1.828,0.2933,38.58,85,94,152074
1.8231,0.2981,38.68,85,94,152078
1.828,0.2933,38.71,85,94,152081
1.8671,0.303,38.55,85,94,152084
1.8377,0.2981,38.68,85,94,152088
1.8524,0.2981,38.68,85,94,152091
1.8328,0.303,38.71,85,94,152094
1.8475,0.2884,38.74,85,94,152097
1.8817,0.2981,38.58,85,94,152101
1.8573,0.2933,38.71,85,94,152104
1.8719,0.2933,38.62,85,94,152108
1.828,0.2981,38.68,85,94,152112
1.8133,0.2933,38.71,85,94,152115
1.8328,0.303,38.68,85,94,152118
1.828,0.2933,38.71,85,94,152122
1.8573,0.2981,38.58,85,94,152125
1.8182,0.2688,38.68,85,94,152128
1.8231,0.2933,38.68,85,94,152132
1.8426,0.303,38.65,85,94,152135
1.8231,0.2933,38.71,85,94,152138
1.911,0.3079,38.46,85,94,152141
1.8719,0.2981,38.58,85,94,152145
1.8622,0.2884,38.71,85,94,152148
1.8671,0.2981,38.68,85,94,152152
1.8426,0.2933,38.62,85,94,152156
1.8817,0.3128,38.49,85,94,152159
1.8377,0.303,38.62,85,94,152162
1.8182,0.2835,38.62,85,94,152166
1.8084,0.2933,38.71,85,94,152169
1.8182,0.2933,38.68,85,94,152172
1.8768,0.303,38.58,85,94,152176
1.8719,0.2981,38.87,85,94,152179
1.9062,0.303,38.55,85,94,152182
1.8866,0.2933,38.68,85,94,152185
1.8964,0.2933,38.68,85,94,152189
1.9257,0.3079,38.65,85,94,152193
1.9208,0.2933,38.71,85,94,152196
1.955,0.303,38.58,85,94,152200
1.9306,0.2933,38.71,85,94,152203
1.9355,0.2933,38.84,85,94,152206
1.9844,0.2981,38.58,85,94,152210
1.9257,0.2933,38.87,85,94,152213
1.9355,0.303,38.55,85,94,152216
1.8915,0.2933,38.58,85,94,152220
1.8622,0.3177,38.71,85,94,152223
1.8671,0.3079,38.52,85,94,152226
1.828,0.2933,38.71,85,94,152229
1.8768,0.303,38.46,85,94,152233
1.8182,0.2933,38.62,85,94,152237
1.7986,0.303,38.71,85,94,152240
1.7937,0.2981,38.74,85,94,152244
1.7693,0.2933,38.71,85,94,152247
1.8182,0.2884,38.43,85,94,152250
1.7693,0.3079,38.65,85,94,152254
1.7644,0.2884,38.65,85,94,152257
1.7546,0.2933,38.74,85,94,152260
1.7498,0.2981,38.68,85,94,152264
1.7889,0.3079,38.68,85,94,152267
1.7546,0.2981,38.65,85,94,152270
1.7644,0.2933,38.58,85,94,152273
1.7595,0.2933,38.71,85,94,152278
1.7644,0.2933,38.71,85,94,152281
1.7889,0.303,38.55,85,94,152284
1.7449,0.3079,38.65,85,94,152288
1.7546,0.2981,38.55,85,94,152291
1.7302,0.2933,38.96,85,94,152294
1.7449,0.2981,38.71,85,94,152298
1.7742,0.2933,38.87,85,94,152301
1.7595,0.303,38.68,85,94,152304
1.7693,0.2933,38.55,85,94,152308
1.7351,0.2933,38.65,85,94,152311
1.7498,0.2933,38.74,85,94,152314
1.8035,0.2981,38.62,85,94,152318
1.911,0.2933,38.71,85,94,152322
2.087,0.2981,38.49,85,94,152325
2.1945,0.2884,38.65,85,94,152328
2.3363,0.2884,38.71,85,94,152332
2.3803,0.2981,38.81,85,94,152335
2.3558,0.2688,38.71,85,94,152338
2.3265,0.3079,38.46,85,94,152342
2.1261,0.3079,38.62,85,94,152345
1.9306,0.2884,38.68,85,94,152348
1.7546,0.2981,38.55,85,94,152352
1.5494,0.2933,38.68,85,94,152355
1.4027,0.3079,38.49,85,94,152358
1.2317,0.303,38.68,85,94,152364
1.393,0.2981,38.68,85,94,152367
1.5934,0.2981,38.55,85,94,152371
1.6716,0.2933,38.68,85,94,152374
1.7693,0.2688,38.71,85,94,152377
1.8328,0.2981,38.84,85,94,152380
1.8817,0.2981,38.68,85,94,152384
1.9306,0.2981,38.55,85,94,152387
1.9355,0.2933,38.71,85,94,152390
1.8915,0.2933,38.71,85,94,152394
1.9013,0.303,38.62,85,94,152397
1.8866,0.2933,38.68,85,94,152400
1.9404,0.303,38.49,85,94,152404
1.9257,0.303,38.68,85,94,152408
1.9208,0.2688,38.74,85,94,152411
1.9501,0.3226,38.65,85,94,152415
1.9355,0.2933,38.74,85,94,152418
1.9844,0.3079,38.58,85,94,152421
1.9355,0.2933,38.55,85,94,152424
1.9013,0.2884,38.68,85,94,152428
1.8964,0.3128,38.71,85,94,152431
1.8866,0.2933,38.71,85,94,152434
1.9501,0.3079,38.46,85,94,152438
1.9208,0.303,38.68,85,94,152441
1.9648,0.2884,38.62,85,94,152444
1.9257,0.2933,38.81,85,94,152449
1.9501,0.2884,38.71,85,94,152452
1.9892,0.3079,38.49,85,94,152455
1.9648,0.2884,38.68,85,94,152458
1.9746,0.2884,38.58,85,94,152462
1.9306,0.2884,38.68,85,94,152465
1.9062,0.2933,38.71,85,94,152468
1.9062,0.3079,38.52,85,94,152472
1.8475,0.2933,38.71,85,94,152475
1.8671,0.2933,38.71,85,94,152478
1.8377,0.2933,38.62,85,94,152482
1.8524,0.2933,38.74,85,94,152485
1.8915,0.2884,38.55,85,94,152488
1.8866,0.2933,38.71,85,94,152493
1.9306,0.2981,38.43,85,94,152496
1.9159,0.2884,38.65,85,94,152499
1.9013,0.2884,38.71,85,94,152503
1.9013,0.303,38.68,85,94,152506
1.8817,0.2688,38.71,85,94,152509
1.9159,0.303,38.52,85,94,152512
1.8768,0.2884,38.65,85,94,152516
1.8671,0.2933,38.71,85,94,152519
1.8719,0.2933,38.68,85,94,152522
1.8719,0.2933,38.71,85,94,152526
1.9453,0.3177,38.43,85,94,152529
1.9257,0.2981,38.65,85,94,152532
1.9159,0.2884,38.62,85,94,152537
1.8915,0.2981,38.68,85,94,152540
1.8622,0.2933,38.71,85,94,152543
1.8817,0.303,38.55,85,94,152547
1.8426,0.2981,38.65,85,94,152550
1.828,0.2933,38.55,85,94,152553
1.7937,0.2933,38.84,85,94,152556
1.8035,0.3079,38.68,85,94,152560
1.8426,0.2981,38.55,85,94,152563
1.828,0.2933,38.71,85,94,152566
1.8671,0.303,38.58,85,94,152570
1.8671,0.2933,38.71,85,94,152573
1.8817,0.303,38.68,85,94,152577
1.9208,0.2884,38.62,85,94,152581
1.8768,0.2933,38.71,85,94,152584
1.8964,0.303,38.52,85,94,152587
1.8768,0.2933,38.68,85,94,152591
1.8915,0.2933,38.65,85,94,152594
1.9404,0.2981,38.62,85,94,152597
1.9453,0.2933,38.87,85,94,152600
2.0039,0.303,38.46,85,94,152604
1.9941,0.2884,38.58,85,94,152607
1.9697,0.2933,38.74,85,94,152610
2.0088,0.303,38.65,85,94,152614
1.9892,0.2933,38.74,85,94,152617
2.0137,0.3079,38.49,85,94,152621
1.9648,0.2933,38.58,85,94,152625
1.9404,0.2884,38.71,85,94,152628
1.9257,0.3226,38.68,85,94,152631
1.9062,0.2933,38.71,85,94,152635
1.9453,0.3079,38.49,85,94,152638
1.8915,0.2981,38.65,85,94,152641
1.8915,0.2933,38.68,85,94,152644
1.8915,0.2884,38.68,85,94,152648
1.8866,0.2933,38.74,85,94,152651
1.9355,0.2981,38.58,85,94,152654
1.8475,0.2981,38.68,85,94,152658
1.8426,0.2981,38.62,85,94,152662
1.8035,0.2933,38.71,85,94,152665
1.8035,0.2933,38.71,85,94,152669
1.828,0.2884,38.55,85,94,152672
1.7986,0.2933,38.74,85,94,152675
1.8524,0.2981,38.58,85,94,152679
1.8035,0.2884,38.65,85,94,152682
1.8133,0.2933,38.71,85,94,152685
1.8377,0.2981,38.55,85,94,152688
1.828,0.2933,38.62,85,94,152692
1.8719,0.303,38.49,85,94,152695
1.8426,0.2933,38.49,85,94,152698
1.8328,0.2933,38.71,85,94,152702
1.8475,0.2981,38.65,85,94,152706
1.8182,0.2933,38.68,85,94,152709
1.8622,0.2884,38.4,85,94,152713
1.8182,0.2933,38.65,85,94,152716
1.828,0.2884,38.71,85,94,152719
1.8426,0.3177,38.74,85,94,152723
1.8377,0.2933,38.71,85,94,152726
1.9013,0.3079,38.43,85,94,152729
1.8671,0.303,38.62,85,94,152733
1.8524,0.2933,38.65,85,94,152736
1.8426,0.2933,38.65,85,94,152739
1.8231,0.2933,38.71,85,94,152742
1.8622,0.303,38.52,85,94,152747
1.8328,0.2981,38.68,85,94,152750
1.8377,0.2981,38.52,85,94,152753
1.8328,0.2933,38.68,85,94,152757
1.8426,0.2933,38.71,85,94,152760
1.8817,0.303,38.55,85,94,152763
1.8573,0.2933,38.68,85,94,152767
1.8719,0.303,38.62,85,94,152770
1.8377,0.2933,38.71,85,94,152773
1.8328,0.2933,38.08,85,94,152777
1.8377,0.2981,38.62,85,94,152780
1.828,0.2933,38.68,85,94,152783
1.8426,0.2981,38.68,85,94,152786
1.8231,0.2933,38.71,85,94,152791
1.8328,0.2933,38.77,85,94,152794
1.8671,0.303,38.58,85,94,152797
1.8524,0.2933,38.71,85,94,152801
1.9159,0.303,38.46,85,94,152804
1.8964,0.2981,38.9,85,94,152807
1.8719,0.2933,38.74,85,94,152811
1.8817,0.2981,38.68,85,94,152814
1.8426,0.2933,38.71,85,94,152817
1.8817,0.2884,38.36,85,94,152821
1.8377,0.3226,38.55,85,94,152824
1.828,0.2884,38.65,85,94,152827
1.8426,0.2981,38.05,85,94,152830
1.8377,0.2933,38.77,85,94,152835
1.9013,0.3079,38.52,85,94,152838
1.8524,0.2933,38.65,85,94,152841
1.8524,0.2933,38.62,85,94,152845
1.8524,0.2981,38.68,85,94,152848
1.8671,0.2933,38.71,85,94,152851
1.911,0.303,38.68,85,94,152855
1.8768,0.3177,38.65,85,94,152858
1.8719,0.2981,38.55,85,94,152861
1.8133,0.2933,38.71,85,94,152865
1.7986,0.2933,38.74,85,94,152868
1.8182,0.3079,38.55,85,94,152871
1.7937,0.2884,38.68,85,94,152875
1.8231,0.2933,38.55,85,94,152879
1.7986,0.2933,38.62,85,94,152882
1.8035,0.2933,38.71,85,94,152885
1.828,0.2981,38.55,85,94,152889
1.8475,0.2933,38.71,85,94,152892
1.8573,0.2981,37.9,85,94,152895
1.8622,0.2933,38.65,85,94,152899
1.8866,0.2933,38.74,85,94,152902
1.9208,0.2981,38.62,85,94,152905
1.8964,0.2933,38.68,85,94,152909
1.9404,0.3079,38.77,85,94,152912
1.8915,0.2933,38.62,85,94,152915
1.8915,0.2884,38.27,85,94,152920
1.9013,0.303,38.65,85,94,152923
1.9013,0.2933,38.71,85,94,152926
1.9648,0.3372,38.43,85,94,152929
1.9355,0.2884,38.65,85,94,152933
1.955,0.2933,38.77,85,94,152936
1.9648,0.2981,38.68,85,94,152939
1.9746,0.2933,38.71,85,94,152943
1.9892,0.3079,38.52,85,94,152946
1.9208,0.2981,38.65,85,94,152949
1.9013,0.2981,38.55,85,94,152953
1.9013,0.2884,38.68,85,94,152956
1.8573,0.2933,38.71,85,94,152960
1.8622,0.2884,38.55,85,94,152964
1.8133,0.2933,38.77,85,94,152967
1.8182,0.2981,38.58,85,94,152970
1.784,0.2933,38.46,85,95,152973
1.7889,0.2933,38.68,85,95,152978
1.7791,0.2933,38.84,85,95,152981
1.7889,0.2884,38.65,85,95,152985
1.7742,0.2933,38.68,85,95,152988
1.8475,0.303,38.43,85,95,152991
1.8133,0.2981,38.65,85,95,152995
1.8035,0.3226,38.74,85,95,152998
1.784,0.2981,38.71,85,95,153001
1.74,0.2933,38.71,85,95,153006
1.7742,0.3128,38.49,85,95,153009
1.7253,0.3079,38.58,85,95,153012
1.7253,0.2981,38.58,85,95,153016
1.7351,0.2981,38.68,85,95,153019
1.7449,0.2981,38.74,85,95,153022
1.7791,0.303,38.55,85,95,153025
1.7449,0.2981,38.65,85,95,153029
1.7546,0.3226,38.55,85,95,153032
1.7595,0.2933,38.71,85,95,153035
1.8426,0.2884,38.74,85,95,153039
1.9892,0.2981,38.68,85,95,153042
2.131,0.2933,38.65,85,95,153046
2.3363,0.303,38.58,85,95,153050
2.3558,0.2933,38.71,85,95,153053
2.3851,0.2884,38.71,85,95,153056
2.3949,0.303,38.62,85,95,153060
2.2581,0.2933,38.68,85,95,153063
2.1408,0.2884,38.49,85,95,153066
1.9404,0.2933,38.62,85,95,153069
1.7302,0.3079,38.68,85,95,153073
1.5396,0.3079,38.58,85,95,153076
1.3587,0.2933,38.71,85,95,153079
1.2512,0.3128,38.43,85,95,153083
1.1437,0.2933,38.65,85,95,153086
1.0997,0.2933,38.93,85,95,153090
1.173,0.2688,38.68,85,95,153094
1.2414,0.2933,38.71,85,95,153097
1.4174,0.3372,38.36,85,95,153100
1.5249,0.2933,38.58,85,95,153104
1.6227,0.2933,38.65,85,95,153107
1.7058,0.2933,38.68,85,95,153110
1.7693,0.2933,38.68,85,95,153113
1.8573,0.3079,38.58,85,95,153117
1.8475,0.2981,38.65,85,95,153120
1.8768,0.2884,38.62,85,95,153123
1.8866,0.2933,38.68,85,95,153127
1.9062,0.2933,38.71,85,95,153131
1.9501,0.303,38.02,85,95,153134
