1.955,0.3079,38.52,83,95,322769
1.9355,0.2884,38.55,83,95,322772
1.9257,0.3079,38.36,83,95,322776
1.8573,0.3421,38.49,83,95,322780
1.8426,0.3079,38.36,83,95,322783
1.7937,0.2981,38.52,83,95,322786
1.784,0.3079,38.52,83,95,322789
1.8133,0.3079,38.55,83,95,322793
1.7889,0.3079,38.55,83,95,322796
1.8182,0.3128,38.36,83,95,322799
1.7889,0.3079,38.43,83,95,322803
1.784,0.3079,38.52,83,95,322806
1.7889,0.3177,38.43,83,95,322809
1.7742,0.3079,38.52,83,95,322813
1.7986,0.3079,38.24,83,95,322817
1.7889,0.2981,38.49,83,95,322820
1.7693,0.3079,38.52,83,95,322824
1.7791,0.3177,38.52,83,95,322827
1.7644,0.3079,38.52,83,95,322830
1.8084,0.3177,38.24,83,95,322833
1.7644,0.3372,38.55,83,95,322837
1.7693,0.303,38.49,83,95,322840
1.784,0.3177,38.49,83,95,322843
1.7742,0.3079,38.52,83,95,322847
1.8182,0.3226,38.27,83,95,322850
1.7937,0.3128,38.46,83,95,322853
1.7693,0.303,38.49,83,95,322857
1.7937,0.3128,38.49,83,95,322861
1.8573,0.303,38.52,83,95,322864
2.0283,0.3226,38.3,83,95,322867
2.1505,0.3079,38.49,83,95,322871
2.3118,0.3128,38.4,83,95,322874
2.4096,0.3079,38.55,83,95,322877
2.4487,0.3079,38.52,83,95,322881
2.4731,0.3128,38.43,83,95,322884
2.3509,0.3079,38.49,83,95,322887
2.2092,0.3079,38.36,83,95,322891
1.999,0.3324,38.55,83,95,322894
1.784,0.3079,38.55,83,95,322897
1.5885,0.3128,38.46,83,95,322900
1.3685,0.3079,38.52,83,95,322905
1.217,0.3177,38.43,83,95,322908
1.0948,0.3079,38.55,83,95,322911
1.0948,0.2981,38.52,83,95,322915
1.1241,0.3128,38.4,83,95,322918
1.2219,0.3177,38.52,83,95,322921
1.3881,0.3128,38.33,83,95,322925
1.5152,0.3079,38.33,83,95,322928
1.6178,0.303,38.52,83,95,322931
1.7204,0.3079,38.4,83,95,322935
1.7644,0.3128,38.52,83,95,322938
1.8524,0.3421,38.3,83,95,322941
1.8622,0.303,38.49,83,95,322945
1.8719,0.3079,38.55,83,95,322949
1.8915,0.3177,38.49,83,95,322952
1.8768,0.303,38.52,83,95,322955
1.9355,0.3177,38.21,83,95,322959
1.9013,0.3079,38.43,83,95,322962
1.8964,0.303,38.81,83,95,322965
1.9013,0.3128,38.49,83,95,322969
1.8964,0.3079,38.46,83,95,322972
1.955,0.3226,38.33,83,95,322975
1.9208,0.3128,38.49,83,95,322978
1.9208,0.3128,38.4,83,95,322982
1.911,0.3079,38.52,83,95,322985
1.9062,0.3079,38.55,83,95,322989
1.9501,0.3421,38.33,83,95,322993
1.9306,0.3128,38.52,83,95,322996
1.9501,0.3226,38.36,83,95,322999
1.9306,0.3079,38.52,83,95,323003
1.9306,0.303,38.52,83,95,323006
1.9404,0.3226,38.46,83,95,323009
1.9257,0.3079,38.52,83,95,323013
1.9404,0.3079,38.4,83,95,323016
1.8964,0.3177,38.52,83,95,323019
1.9013,0.3079,38.52,83,95,323022
1.911,0.3079,38.43,83,95,323026
1.9159,0.3128,38.55,83,95,323030
1.9599,0.3128,38.33,83,95,323033
1.9355,0.3128,38.52,83,95,323037
1.9306,0.3079,38.55,83,95,323040
1.9257,0.3128,38.71,83,95,323043
1.8866,0.3079,38.52,83,95,323047
1.911,0.3079,38.3,83,95,323050
1.8817,0.3079,38.49,83,95,323053
1.8915,0.3079,38.52,83,95,323056
1.8964,0.3079,38.49,83,95,323060
1.8866,0.3324,38.55,83,95,323063
1.9355,0.3226,38.21,83,95,323066
1.8866,0.3128,38.4,83,95,323070
1.8671,0.303,38.49,83,95,323074
1.8671,0.3079,38.52,83,95,323077
1.8622,0.3079,38.55,83,95,323081
1.9159,0.3226,38.58,83,95,323084
1.8671,0.3128,38.46,83,95,323087
1.8622,0.303,38.4,83,95,323091
1.8426,0.2981,38.49,81,95,323094
1.8328,0.3079,38.52,81,95,323098
1.8328,0.303,38.43,81,95,323101
1.8622,0.3226,38.43,81,95,323104
1.8475,0.3079,38.58,81,95,323108
1.8768,0.347,38.3,81,95,323111
1.8524,0.3128,38.43,81,95,323115
1.8426,0.3079,38.52,81,95,323118
1.8524,0.3226,38.4,81,95,323122
1.8573,0.2884,38.52,81,95,323125
1.8817,0.3177,38.27,81,95,323128
1.8524,0.303,38.46,81,95,323132
1.8768,0.2884,38.55,81,95,323135
1.8915,0.3128,38.52,81,95,323138
1.8866,0.303,38.52,81,95,323142
1.9599,0.3177,38.21,81,95,323145
1.9208,0.347,38.43,81,95,323148
1.9453,0.303,38.49,81,95,323151
1.9257,0.3079,38.52,81,95,323155
1.9208,0.3079,38.55,81,95,323159
1.9844,0.3275,38.3,81,95,323162
1.955,0.3079,37.8,81,95,323166
1.9746,0.3079,38.43,81,95,323169
1.9746,0.3079,38.52,81,95,323172
1.9648,0.3128,38.71,81,95,323176
1.9892,0.3177,38.33,81,95,323179
1.9404,0.3079,38.77,81,95,323182
1.9306,0.3079,38.36,81,95,323185
1.8915,0.303,38.52,81,95,323189
1.8768,0.3079,38.55,81,95,323192
1.8768,0.3128,38.49,81,95,323195
1.8817,0.3079,38.52,81,95,323200
1.8671,0.3177,38.4,81,95,323203
1.828,0.3079,38.21,81,95,323206
1.8231,0.3079,38.55,81,95,323210
1.8328,0.3128,38.43,81,95,323213
1.8231,0.3079,38.49,81,95,323216
1.8475,0.3128,38.3,81,95,323219
1.8133,0.3079,38.52,81,95,323223
1.8182,0.3226,38.49,81,95,323226
1.8328,0.3128,38.43,81,95,323229
1.8035,0.347,38.55,81,95,323233
1.8475,0.3177,38.24,81,95,323236
1.8084,0.3079,38.36,81,95,323239
1.7986,0.303,38.52,81,95,323244
1.828,0.3128,38.46,81,95,323247
1.8182,0.3079,38.62,81,95,323250
1.8719,0.3226,38.24,81,95,323254
1.8328,0.3079,38.46,81,95,323257
1.8182,0.303,38.55,81,95,323260
1.8182,0.3079,38.52,81,95,323263
1.8133,0.3079,38.43,81,95,323267
1.8671,0.347,38.3,81,95,323270
1.828,0.3079,38.58,81,95,323273
1.8231,0.3079,38.4,81,95,323277
1.8328,0.3128,38.52,81,95,323280
1.8231,0.3079,38.65,81,95,323283
1.8622,0.3421,38.43,81,95,323288
1.8524,0.3079,38.49,81,95,323291
1.8866,0.3079,38.36,81,95,323294
1.8768,0.3079,38.52,81,95,323298
1.8719,0.3128,38.55,81,95,323301
1.8866,0.3177,38.36,81,95,323304
1.8426,0.3079,38.55,81,95,323307
1.8426,0.3128,38.46,81,95,323311
1.7937,0.2981,38.43,81,95,323314
1.8035,0.3079,38.52,81,95,323317
1.7937,0.3079,38.33,81,95,323321
1.7889,0.2981,38.52,81,95,323324
1.828,0.3128,38.3,81,95,323328
1.8133,0.3128,38.49,81,95,323332
1.828,0.3079,38.52,81,95,323335
1.8524,0.3128,37.71,81,95,323338
1.8426,0.3128,38.55,81,95,323342
1.9013,0.3177,38.27,81,95,323345
1.8866,0.2981,38.49,81,95,323348
1.8524,0.3079,38.52,81,95,323351
1.8426,0.3079,38.65,81,95,323355
1.828,0.2884,38.52,81,95,323358
1.8768,0.3079,38.3,81,95,323361
1.8475,0.3177,38.43,81,95,323365
1.8768,0.2981,38.46,81,95,323368
1.8426,0.3079,38.36,81,95,323372
1.8426,0.2981,38.52,81,95,323376
1.8964,0.3226,38.33,81,95,323379
1.8719,0.3128,38.46,81,95,323382
1.8768,0.3128,38.46,81,95,323386
1.8573,0.3079,38.55,81,95,323389
1.8524,0.2981,38.55,81,95,323392
1.8671,0.3079,38.4,81,95,323395
1.8377,0.3079,38.52,81,95,323399
1.8573,0.3128,38.4,81,95,323402
1.828,0.3079,38.58,81,95,323405
1.8328,0.303,38.55,81,95,323409
1.8426,0.3128,38.49,81,95,323412
1.8328,0.3079,38.52,81,95,323416
1.8573,0.3128,38.4,81,95,323420
1.8328,0.3079,38.52,81,95,323423
1.8328,0.3079,38.49,81,95,323426
1.8964,0.3177,38.36,81,95,323429
1.8426,0.3079,38.65,81,95,323433
1.8719,0.3421,38.27,81,95,323436
1.8671,0.3128,38.4,81,95,323439
1.8573,0.3079,38.52,81,95,323443
1.8866,0.3177,38.43,81,95,323446
1.8622,0.3079,38.52,81,95,323449
1.9062,0.3177,38.24,81,95,323453
1.8671,0.3079,38.43,81,95,323457
1.8622,0.303,38.49,81,95,323460
1.8719,0.3128,38.52,81,95,323464
1.8426,0.3079,38.52,81,95,323467
1.8671,0.3275,38.3,81,95,323470
1.7986,0.3128,38.46,81,95,323473
1.7791,0.303,38.58,81,95,323477
1.7742,0.3177,38.52,81,95,323480
1.784,0.3079,38.52,81,95,323483
1.8426,0.3617,38.36,81,95,323487
1.8231,0.3079,38.49,81,95,323490
1.828,0.3079,38.4,81,95,323493
1.8133,0.2981,38.49,81,95,323497
1.8231,0.3079,38.55,81,95,323501
1.8768,0.3177,38.33,81,95,323504
1.8622,0.3079,38.49,81,95,323508
1.8915,0.3177,38.36,81,95,323511
1.8671,0.303,38.46,81,95,323514
1.8768,0.3079,38.65,81,95,323517
1.9306,0.3128,38.4,81,95,323521
1.9013,0.3079,38.52,81,95,323524
1.9355,0.3079,38.43,81,95,323527
1.9159,0.3372,38.49,81,95,323531
1.911,0.3079,38.62,81,95,323534
1.9355,0.3079,38.43,81,95,323537
1.9404,0.2981,38.52,81,95,323542
1.9648,0.3177,38.27,81,95,323545
1.9355,0.3128,38.49,81,95,323548
1.9306,0.3079,38.52,81,95,323551
1.9306,0.3079,38.33,81,95,323555
1.8866,0.3079,38.52,81,95,323558
1.9257,0.3177,38.24,81,95,323561
1.8671,0.3372,38.43,81,95,323565
1.8377,0.303,38.49,81,95,323568
1.8377,0.3128,38.49,81,95,323571
1.828,0.3079,38.52,81,95,323575
1.8719,0.3275,38.4,81,95,323578
1.8426,0.3128,38.49,81,95,323581
1.8133,0.3079,38.43,81,95,323586
1.7889,0.3079,38.52,81,95,323589
1.7595,0.2981,38.52,81,95,323592
1.7791,0.3177,38.36,81,95,323595
1.7351,0.303,38.52,81,95,323599
1.7498,0.3128,38.4,81,95,323602
1.7351,0.3079,38.52,81,95,323605
1.7302,0.3128,38.52,81,95,323609
1.74,0.3128,38.49,81,95,323612
1.7253,0.3079,38.49,81,95,323615
1.7498,0.3177,38.43,81,95,323619
1.7351,0.3177,38.52,81,95,323622
1.7546,0.303,38.52,81,95,323625
1.784,0.3177,38.4,81,95,323630
1.7693,0.3128,38.55,81,95,323633
1.7986,0.3128,38.33,81,95,323636
1.784,0.3079,38.4,81,95,323639
1.7889,0.3079,38.52,81,95,323643
1.8426,0.3128,38.43,81,95,323646
1.9062,0.3079,38.62,81,95,323649
2.0821,0.3421,38.24,81,95,323653
2.1994,0.303,38.52,81,95,323656
2.3216,0.3128,38.55,81,95,323659
2.4047,0.3079,38.46,81,95,323663
2.4291,0.3079,38.55,81,95,323666
2.3949,0.3177,38.27,81,95,323670
2.1896,0.2981,38.43,81,95,323673
1.9892,0.303,38.49,81,95,323677
1.784,0.3079,38.62,81,95,323680
1.5738,0.303,38.52,81,95,323683
1.4174,0.3275,38.18,81,95,323687
1.217,0.3079,38.49,81,95,323690
1.0802,0.3079,38.46,81,95,323693
1.0068,0.3079,38.49,81,95,323697
1.0068,0.3128,38.52,81,95,323700
1.1241,0.3226,38.33,81,95,323703
1.8035,0.3128,38.46,81,95,323707
1.8524,0.3079,38.52,81,95,323710
1.9159,0.3177,38.36,81,95,323714
1.911,0.3079,38.49,81,95,323718
1.9208,0.3226,38.55,81,95,323721
1.9355,0.3128,38.43,81,95,323724
1.9208,0.3079,38.58,81,95,323728
1.9599,0.3128,38.27,81,95,323731
1.9257,0.303,38.52,81,95,323734
1.9208,0.3079,38.52,81,95,323738
1.9306,0.3177,38.46,81,95,323741
1.9159,0.3079,38.46,81,95,323744
1.9746,0.3128,38.24,81,95,323748
1.9355,0.3079,38.46,81,95,323751
1.9257,0.303,38.49,81,95,323755
1.9501,0.3079,38.49,81,95,323758
1.9501,0.3079,38.62,81,95,323762
2.0332,0.3226,38.3,81,95,323765
2.0088,0.3177,38.43,81,95,323768
1.9892,0.303,38.4,81,95,323772
1.9501,0.3079,38.52,81,95,323775
1.9013,0.3079,38.55,81,95,323778
1.9159,0.3226,38.36,81,95,323782
1.8622,0.3177,38.46,81,95,323785
1.8768,0.3128,38.4,81,95,323788
1.8622,0.3079,38.4,81,95,323791
1.9062,0.2981,38.49,81,95,323795
1.8964,0.3079,38.55,81,95,323799
1.8719,0.3128,38.52,81,95,323802
1.8866,0.3128,38.4,81,95,323806
1.8719,0.3324,38.52,81,95,323809
1.8915,0.3079,38.55,81,95,323812
1.9355,0.3177,38.36,81,95,323816
1.9159,0.3079,38.52,81,95,323819
1.9404,0.3128,38.3,81,95,323822
1.911,0.303,38.43,81,95,323826
1.8964,0.3079,38.52,81,95,323829
1.9013,0.3128,38.36,81,95,323832
1.8719,0.303,38.49,81,95,323835
1.8817,0.3128,38.27,81,95,323840
1.8475,0.303,38.55,81,95,323843
1.8475,0.303,38.55,81,95,323846
1.8719,0.3128,38.46,81,95,323850
1.8573,0.3079,38.52,81,95,323853
1.9453,0.3177,38.24,81,95,323856
1.8719,0.3372,38.46,81,95,323860
1.8768,0.303,38.49,81,95,323863
1.8866,0.3079,38.49,81,95,323866
1.9013,0.2884,38.52,81,95,323870
1.9599,0.3275,38.52,81,95,323873
1.911,0.3128,38.49,81,95,323876
1.9013,0.3128,38.4,81,95,323879
1.8719,0.3275,38.52,81,95,323884
1.8671,0.2884,38.52,81,95,323887
1.8622,0.3177,38.33,81,95,323890
1.8182,0.3128,38.52,81,95,323894
1.828,0.3079,38.46,81,95,323897
1.8084,0.3177,38.52,81,95,323900
1.8231,0.3079,38.52,81,95,323904
1.8573,0.3079,38.4,81,95,323907
1.8475,0.3128,38.52,81,95,323910
1.8915,0.3128,38.4,81,95,323914
1.8622,0.3079,38.36,81,95,323917
1.8671,0.2884,38.52,81,95,323920
1.8866,0.3128,38.4,81,95,323923
1.8915,0.303,38.55,81,95,323928
1.9501,0.3128,38.33,81,95,323931
1.9306,0.3079,38.52,81,95,323934
1.9453,0.3079,38.52,81,95,323938
1.9697,0.3177,38.18,81,95,323941
1.9599,0.303,38.55,81,95,323944
2.0088,0.3177,38.3,81,95,323948
1.9892,0.3079,38.36,81,95,323951
1.9648,0.3177,38.49,81,95,323954
1.9697,0.3128,38.46,81,95,323957
1.9404,0.3079,38.4,81,95,323961
1.9795,0.3177,38.24,81,95,323964
1.9306,0.3079,38.4,81,95,323968
1.9159,0.303,38.52,81,95,323972
1.9062,0.3177,38.49,81,95,323975
1.8866,0.3079,38.52,81,95,323978
1.9306,0.3079,38.3,81,95,323982
1.8964,0.3226,38.43,81,95,323985
1.911,0.303,38.43,81,95,323988
1.9013,0.3079,38.49,81,95,323991
1.8768,0.3128,38.55,81,95,323995
1.8817,0.3177,38.4,81,95,323998
1.8133,0.3079,38.68,81,95,324001
1.8035,0.3177,38.4,81,95,324005
1.7791,0.3079,38.52,81,95,324008
1.7742,0.3079,38.52,81,95,324012
1.8084,0.3177,38.36,81,95,324016
1.7986,0.3128,38.52,81,95,324019
1.8475,0.3128,38.4,81,95,324022
1.828,0.303,38.36,81,95,324026
1.8377,0.3079,38.62,81,95,324029
1.8524,0.3079,38.46,81,95,324032
1.8377,0.3079,38.49,81,95,324035
1.8573,0.3128,38.33,81,95,324039
1.8133,0.3079,38.46,81,95,324042
1.7986,0.3079,38.52,81,95,324045
1.8084,0.3128,38.43,81,95,324049
1.7937,0.3079,38.71,81,95,324052
1.8573,0.3128,38.24,81,95,324056
1.7937,0.303,38.65,81,95,324060
1.7986,0.303,38.52,81,95,324063
1.8182,0.3128,38.49,81,95,324066
1.8084,0.3177,38.55,81,95,324070
1.8524,0.3177,38.21,81,95,324073
1.828,0.3128,38.46,81,95,324076
1.8084,0.3226,38.55,81,95,324079
1.8182,0.3128,38.62,81,95,324083
1.8084,0.3079,38.52,81,95,324086
1.8671,0.3226,38.3,81,95,324089
1.828,0.3079,38.49,81,95,324093
1.8328,0.3128,38.43,81,95,324097
1.8084,0.3079,38.52,81,95,324100
1.8133,0.3128,38.71,81,95,324104
1.8475,0.3177,38.46,81,95,324107
1.8377,0.3079,38.46,81,95,324110
1.8573,0.303,38.36,81,95,324113
1.8377,0.3079,38.52,81,95,324117
1.8377,0.3079,38.52,81,95,324120
1.8866,0.3128,38.43,81,95,324123
1.8524,0.3079,38.55,81,95,324127
1.8866,0.3421,38.4,81,95,324130
1.8524,0.3079,38.55,81,95,324133
1.8475,0.3079,38.49,81,95,324137
1.8671,0.3128,38.4,81,95,324141
1.8426,0.3079,38.49,81,95,324144
1.8768,0.3128,38.33,81,95,324148
1.8573,0.3177,38.43,81,95,324151
1.8475,0.3079,38.52,81,95,324154
1.8573,0.3177,38.43,81,95,324158
1.8133,0.3079,38.52,81,95,324161
1.8475,0.3177,38.3,81,95,324164
1.8133,0.3128,38.4,81,95,324167
1.8133,0.303,38.52,81,95,324171
1.8231,0.3177,38.52,81,95,324174
1.8231,0.3079,38.55,81,95,324177
1.8768,0.3324,38.27,81,95,324182
1.8377,0.3177,38.46,81,95,324185
1.828,0.303,38.43,81,95,324188
1.828,0.303,38.49,81,95,324192
1.8231,0.3079,38.52,81,95,324195
1.8622,0.3226,38.4,81,95,324198
1.828,0.3079,38.49,81,95,324202
1.8426,0.3128,38.4,81,95,324205
1.8328,0.3128,38.52,81,95,324208
1.8377,0.3079,38.52,81,95,324211
1.8817,0.3177,38.33,81,95,324215
1.8622,0.3128,38.49,81,95,324218
1.8768,0.3226,38.4,81,95,324221
1.8426,0.303,38.49,81,95,324226
1.8377,0.3079,38.52,81,95,324229
1.8524,0.3128,38.3,81,95,324232
1.8231,0.3079,38.52,81,95,324236
1.8426,0.3079,38.43,81,95,324239
1.8133,0.3128,38.46,81,95,324242
1.7937,0.3079,38.62,81,95,324246
1.8035,0.3177,38.4,81,95,324249
1.7986,0.3079,38.52,81,95,324252
1.8328,0.3128,38.3,81,95,324255
1.8133,0.3079,38.49,81,95,324259
1.8231,0.3079,38.52,81,95,324262
1.8475,0.3079,38.4,81,95,324265
1.8231,0.3079,38.52,81,95,324270
1.8573,0.3177,37.77,81,95,324273
1.8133,0.3128,38.46,81,95,324276
1.7889,0.303,38.52,81,95,324280
1.7937,0.3128,38.46,81,95,324283
1.784,0.3079,38.52,81,95,324286
1.8475,0.3275,38.27,81,95,324289
1.8328,0.3177,38.43,81,95,324293
1.8426,0.3079,38.43,81,95,324296
1.8719,0.3079,38.49,81,95,324299
1.9013,0.2884,38.55,81,95,324303
1.9599,0.3079,38.36,81,95,324306
1.9453,0.3177,38.49,81,95,324310
1.9648,0.3128,38.36,81,95,324314
1.9501,0.3128,38.46,80,95,324317
1.9013,0.3079,38.52,80,95,324321
1.8768,0.3128,38.21,80,95,324324
1.8915,0.3128,38.46,80,95,324327
1.8524,0.3079,38.49,80,95,324331
1.8719,0.3177,38.3,80,95,324334
1.8328,0.3128,38.43,80,95,324337
1.8084,0.3079,38.52,80,95,324340
1.828,0.3177,38.43,80,95,324344
1.7937,0.3079,38.62,80,95,324347
1.8475,0.3177,38.24,80,95,324350
1.8182,0.3128,38.4,80,95,324355
1.8035,0.303,38.49,80,95,324358
1.7986,0.303,38.49,80,95,324361
1.7644,0.3079,38.49,80,95,324365
1.7937,0.3275,38.27,80,95,324368
1.7498,0.3128,38.49,80,95,324371
1.74,0.3079,38.46,80,95,324375
1.74,0.3128,38.49,80,95,324378
1.7498,0.3079,38.58,80,95,324381
1.7937,0.3177,38.4,80,95,324384
1.7791,0.3079,38.49,80,95,324388
1.784,0.3128,38.46,80,95,324391
1.7595,0.3079,38.52,80,95,324395
1.7644,0.3079,38.52,80,95,324399
1.7937,0.3177,38.36,80,95,324402
1.7644,0.3079,38.49,80,95,324405
1.784,0.3177,38.4,80,95,324409
1.7595,0.303,38.49,80,95,324412
1.7889,0.2884,38.52,80,95,324415
1.8671,0.3079,38.36,80,95,324419
1.9648,0.3079,38.52,80,95,324422
2.1505,0.3128,38.33,80,95,324425
2.2776,0.303,38.46,80,95,324428
2.3851,0.2884,38.52,80,95,324432
2.4585,0.3079,38.46,80,95,324435
2.4389,0.3079,38.52,80,95,324439
2.4145,0.3177,38.27,80,95,324443
2.2043,0.3079,38.49,80,95,324446
2.0137,0.3079,38.52,80,95,324449
1.8084,0.3079,38.4,80,95,324453
1.5689,0.3079,38.52,80,95,324456
1.3881,0.3177,38.24,80,95,324459
1.1877,0.3079,38.43,80,95,324462
1.0557,0.3275,38.49,80,95,324466
1.002,0.3079,37.8,80,95,324469
1.0117,0.3079,38.52,80,95,324472
1.1779,0.3275,38.43,80,95,324476
1.3343,0.3177,38.46,80,95,324480
1.4956,0.303,38.4,80,95,324483
1.6373,0.3079,38.52,80,95,324487
1.7302,0.3079,38.55,80,95,324490
1.8328,0.3177,38.33,80,95,324493
1.8426,0.2884,38.49,80,95,324496
1.8768,0.3128,38.4,80,95,324500
1.8622,0.3079,38.55,80,95,324503
1.8719,0.3079,38.52,80,95,324506
1.8915,0.3177,38.49,80,95,324510
1.8964,0.3079,38.52,80,95,324513
1.9404,0.3177,38.4,80,95,324516
1.9306,0.3079,38.52,80,95,324520
1.955,0.3079,38.49,80,95,324524
1.9697,0.3177,38.4,80,95,324527
1.9501,0.303,38.49,80,95,324531
1.9355,0.3128,38.36,80,95,324534
1.8964,0.3079,38.43,80,95,324537
1.8866,0.3079,38.55,80,95,324540
1.9062,0.3128,38.4,80,95,324544
1.8817,0.3177,38.55,80,95,324547
1.911,0.3177,38.3,80,95,324550
1.8915,0.3079,38.4,80,95,324554
1.8719,0.3177,38.55,80,95,324557
1.9062,0.3128,38.46,80,95,324560
1.9013,0.3079,38.77,80,95,324564
1.9599,0.3275,38.24,80,95,324568
1.911,0.3079,38.71,80,95,324571
1.8915,0.303,38.49,80,95,324574
1.8817,0.3128,38.55,80,95,324578
1.8719,0.3079,38.52,80,95,324581
1.9257,0.3324,38.3,80,95,324584
1.8719,0.3128,38.49,80,95,324588
1.8719,0.3079,37.9,80,95,324591
1.8768,0.3079,38.49,80,95,324594
1.8817,0.3079,38.52,80,95,324598
1.9306,0.3177,37.56,80,95,324601
1.911,0.3128,38.46,80,95,324604
1.9062,0.3128,38.36,80,95,324608
1.8866,0.3079,38.52,80,95,324612
1.8866,0.303,38.55,80,95,324615
1.9208,0.3177,38.36,80,95,324618
1.9013,0.3079,38.52,80,95,324622
1.9159,0.3128,38.43,80,95,324625
1.8768,0.3079,38.52,80,95,324628
1.8719,0.3079,38.52,80,95,324632
1.8671,0.3128,38.46,80,95,324635
1.8524,0.3079,38.52,80,95,324638
1.8671,0.303,38.36,80,95,324641
1.8328,0.3079,38.52,80,95,324645
1.8328,0.3128,38.52,80,95,324648
1.8671,0.3128,38.43,80,95,324652
1.8475,0.3128,38.52,80,95,324656
1.8964,0.3128,38.27,80,95,324659
1.8964,0.3079,38.4,80,95,324662
1.9013,0.3079,38.55,80,95,324666
1.9355,0.3177,38.43,80,95,324669
1.8964,0.3128,38.55,80,95,324672
1.9159,0.3177,38.24,80,95,324676
1.8475,0.3079,38.4,80,95,324679
1.8133,0.3324,38.55,80,95,324682
1.8084,0.3128,38.52,80,95,324685
1.7986,0.3079,38.55,80,95,324689
1.8573,0.3275,38.24,80,95,324692
1.828,0.3079,38.46,80,95,324696
1.8328,0.303,38.46,80,95,324700
1.8377,0.3128,38.52,80,95,324703
1.8524,0.3079,38.55,80,95,324706
1.911,0.3275,38.4,80,95,324710
1.8915,0.3128,38.55,80,95,324713
1.9208,0.3079,38.36,80,95,324716
1.911,0.3079,38.49,80,95,324720
1.9208,0.3079,38.52,80,95,324723
1.9648,0.3128,38.36,80,95,324726
1.9453,0.3079,37.74,80,95,324729
1.9746,0.3079,38.4,80,95,324733
1.955,0.303,38.49,80,95,324737
1.9599,0.3079,38.52,80,95,324740
1.9844,0.3128,38.36,80,95,324744
1.9648,0.3079,38.52,80,95,324747
1.9844,0.3128,38.49,80,95,324750
1.955,0.3079,38.46,80,95,324754
1.9453,0.3079,38.58,80,95,324757
1.9453,0.3226,38.43,80,95,324760
1.9159,0.3079,38.52,80,95,324764
1.9355,0.3177,38.24,80,95,324767
1.8719,0.303,38.46,80,95,324770
1.8622,0.3079,38.58,80,95,324773
1.8622,0.3177,38.49,80,95,324777
1.8426,0.3079,38.62,80,95,324781
1.911,0.3177,38.21,80,95,324784
1.8524,0.3128,38.43,80,95,324788
1.8622,0.3324,38.55,80,95,324791
1.8915,0.3128,38.55,80,95,324794
1.8817,0.3128,38.49,80,95,324798
1.9159,0.3226,38.33,80,95,324801
1.8524,0.3128,38.46,80,95,324804
1.8133,0.3128,38.43,80,95,324808
1.7937,0.3079,38.46,80,95,324811
1.7889,0.3617,38.55,80,95,324814
1.828,0.3128,38.27,80,95,324817
1.8182,0.3177,38.49,80,95,324822
1.8573,0.3128,38.36,80,95,324825
1.8182,0.3079,38.55,80,95,324828
1.8035,0.3079,38.52,80,95,324832
1.8035,0.3079,38.46,80,95,324835
1.7889,0.303,38.52,80,95,324838
1.8182,0.3128,38.36,80,95,324842
1.784,0.3079,38.52,80,95,324845
1.7889,0.3079,38.58,80,95,324848
1.8231,0.3128,38.46,80,95,324852
1.7986,0.3079,38.49,80,95,324855
1.8475,0.3128,38.3,80,95,324858
1.8328,0.3079,38.4,80,95,324861
1.8328,0.3128,38.52,80,95,324866
1.8671,0.3177,38.43,80,95,324869
1.8426,0.3372,38.58,80,95,324872
1.8915,0.3177,38.27,80,95,324876
1.8524,0.3226,38.4,80,95,324879
1.8524,0.2884,38.52,80,95,324882
1.8573,0.3079,38.52,80,95,324886
1.8475,0.3421,38.49,80,95,324889
1.9159,0.3275,38.24,80,95,324892
1.8915,0.3128,38.46,80,95,324896
1.8964,0.303,38.46,80,95,324899
1.8768,0.3128,38.4,80,95,324902
1.8573,0.2981,38.52,80,95,324905
1.8817,0.3226,38.4,80,95,324910
1.8328,0.3079,38.49,80,95,324913
1.8182,0.3128,38.43,80,95,324916
1.784,0.3079,38.52,80,95,324920
1.7693,0.3079,38.55,80,95,324923
1.7986,0.3177,38.43,80,95,324926
1.8377,0.3128,38.49,80,95,324930
1.8231,0.3275,38.52,80,95,324933
1.8622,0.3128,38.33,80,95,324937
1.8426,0.3372,38.49,80,95,324940
1.8377,0.303,38.55,80,95,324943
1.8524,0.3128,37.77,80,95,324947
1.8377,0.3519,38.55,80,95,324951
1.8817,0.3177,38.24,80,95,324954
1.8328,0.3128,38.46,80,95,324957
1.8231,0.303,38.55,80,95,324961
1.8426,0.3079,38.52,80,95,324964
1.8475,0.3079,38.52,80,95,324967
1.8915,0.3079,38.3,80,95,324971
1.8524,0.3079,38.4,80,95,324974
1.828,0.2981,38.46,80,95,324977
1.828,0.3079,38.49,80,95,324981
1.828,0.3079,38.49,80,95,324984
1.9062,0.3226,38.33,80,95,324987
1.8426,0.3079,38.49,80,95,324990
1.8524,0.3324,38.43,80,95,324995
1.8377,0.3079,38.52,80,95,324998
1.8377,0.3079,38.27,80,95,325001
1.8573,0.3128,38.36,80,95,325005
1.828,0.3079,38.58,80,95,325008
1.8426,0.3079,38.36,80,95,325011
1.8231,0.3079,38.52,80,95,325015
1.8328,0.3177,38.49,80,95,325018
1.8475,0.3128,38.43,80,95,325021
1.8426,0.3079,38.62,80,95,325025
1.8671,0.3177,38.36,80,95,325028
1.8328,0.2981,38.52,80,95,325031
1.828,0.2981,38.52,80,95,325035
1.8475,0.3079,38.4,80,95,325039
1.8231,0.3079,38.52,80,95,325042
1.8622,0.3128,38.27,80,95,325045
1.8426,0.3128,38.4,80,95,325049
1.8231,0.3079,38.52,80,95,325052
1.8328,0.3128,38.49,80,95,325055
1.8182,0.3079,38.52,80,95,325059
1.8719,0.3079,38.21,80,95,325062
1.8573,0.3128,38.46,80,95,325065
1.8524,0.303,38.49,80,95,325069
1.8622,0.3128,38.49,80,95,325072
1.8475,0.3079,38.52,80,95,325075
1.8964,0.3275,38.33,80,95,325079
1.8573,0.3128,38.49,80,95,325083
1.8573,0.3079,38.46,80,95,325086
1.8866,0.2884,38.52,80,95,325089
1.8622,0.3079,38.55,80,95,325093
1.8915,0.3177,38.46,80,95,325096
1.8622,0.3079,38.52,80,95,325099
1.8768,0.3128,38.43,80,95,325103
1.8573,0.3079,38.49,80,95,325106
1.8719,0.2981,38.55,80,95,325109
1.9159,0.3079,37.8,80,95,325113
1.9062,0.3079,38.55,80,95,325116
1.955,0.3128,38.36,80,95,325120
1.9355,0.3275,38.43,80,95,325124
1.9453,0.3079,38.52,80,95,325127
1.9501,0.3177,38.43,80,95,325130
1.9159,0.3079,38.55,80,95,325133
1.9355,0.3079,38.46,80,95,325137
1.8964,0.3128,38.4,80,95,325140
1.8768,0.2884,38.52,80,95,325143
1.8866,0.3128,38.46,80,95,325147
1.8475,0.3128,38.52,80,95,325150
1.8719,0.3177,38.24,80,95,325153
1.8084,0.3128,38.46,80,95,325157
1.8133,0.3079,38.55,80,95,325160
1.828,0.3275,38.49,80,95,325164
1.8231,0.3079,38.52,80,95,325168
1.8817,0.3226,38.27,80,95,325171
1.8426,0.3079,38.46,80,95,325174
1.8133,0.303,38.49,80,95,325177
1.7889,0.3079,38.49,80,95,325181
1.7742,0.3079,38.52,80,95,325184
1.7986,0.3177,38.33,80,95,325187
1.7644,0.3079,38.52,80,95,325191
1.784,0.3079,38.4,80,95,325194
1.7742,0.3421,38.52,80,95,325197
1.7889,0.3079,38.52,80,95,325201
1.8231,0.3177,38.4,80,95,325204
1.7986,0.2884,38.49,80,95,325208
1.8182,0.3128,38.05,80,95,325212
1.7791,0.3421,38.52,80,95,325215
1.7693,0.3079,38.52,80,95,325218
1.7693,0.3079,38.4,80,95,325221
1.7498,0.303,38.52,80,95,325225
1.7693,0.3128,38.4,80,95,325228
1.74,0.3079,38.52,80,95,325231
1.784,0.3079,37.77,80,95,325235
1.9306,0.3177,38.43,80,95,325238
2.043,0.3079,38.43,80,95,325241
2.2532,0.3128,38.3,80,95,325245
2.3656,0.3128,38.43,80,95,325249
2.4047,0.3079,38.62,80,95,325252
2.4242,0.3128,38.46,80,95,325255
2.3363,0.3079,38.65,80,95,325259
2.2385,0.3128,38.21,80,95,325262
2.0088,0.3079,38.52,80,95,325265
1.7889,0.3128,38.52,80,95,325269
1.5738,0.3177,38.49,80,95,325272
1.3539,0.3079,38.52,80,95,325275
1.2219,0.3324,38.27,80,95,325279
1.0704,0.3128,38.46,80,95,325282
1.0166,0.303,38.46,80,95,325285
1.0459,0.3079,38.52,80,95,325288
1.1779,0.3079,38.52,80,95,325293
1.3832,0.3226,38.36,80,95,325296
1.5298,0.3177,38.52,80,95,325299
1.6716,0.3128,38.4,80,95,325303
1.7498,0.303,38.55,80,95,325306
1.8035,0.3079,38.55,80,95,325309
1.8622,0.3079,38.33,80,95,325313
1.8768,0.2884,38.52,80,95,325316
1.8817,0.3128,38.4,80,95,325319
1.8622,0.3226,38.52,80,95,325323
1.8768,0.3079,38.55,80,95,325326
1.911,0.3372,38.4,80,95,325329
1.9355,0.3079,38.49,80,95,325332
1.9599,0.3128,38.36,80,95,325337
1.955,0.3275,38.43,80,95,325340
1.955,0.3079,38.55,80,95,325343
1.9453,0.3079,38.49,80,95,325347
1.9062,0.3079,38.52,80,95,325350
1.9306,0.3128,38.33,80,95,325353
1.8817,0.2981,38.49,80,95,325357
1.8768,0.3079,38.55,80,95,325360
1.8817,0.3128,38.46,80,95,325363
1.8622,0.3079,38.52,80,95,325367
1.9257,0.3226,38.21,80,95,325370
1.8964,0.3128,38.46,80,95,325373
1.8866,0.303,38.52,80,95,325377
1.8964,0.3128,38.52,80,95,325381
1.8964,0.3079,38.52,80,95,325384
1.9599,0.3275,38.33,80,95,325387
1.9208,0.3128,38.49,80,95,325391
1.9306,0.3079,38.46,80,95,325394
1.9257,0.3079,38.49,80,95,325397
1.9159,0.3079,38.52,80,95,325401
1.9501,0.3079,38.15,80,95,325404
1.9062,0.3177,38.49,80,95,325407
1.9355,0.3128,38.43,80,95,325410
1.8768,0.3079,38.62,80,95,325414
1.8719,0.303,38.52,80,95,325417
1.8915,0.3128,38.46,80,95,325421
1.8768,0.3079,38.52,80,95,325425
1.9062,0.3177,38.43,80,95,325428
1.8915,0.3079,38.52,80,95,325431
1.8964,0.3128,38.55,80,95,325435
1.9306,0.3177,38.4,80,95,325438
1.8915,0.3324,38.55,80,95,325441
1.9159,0.3128,38.33,80,95,325445
1.8768,0.3079,38.46,80,95,325448
1.8622,0.3128,38.55,80,95,325451
1.8719,0.3079,38.24,80,95,325454
1.8573,0.303,38.52,80,95,325458
1.9257,0.3226,38.27,80,95,325462
1.9306,0.3177,38.49,80,95,325465
1.9599,0.2884,38.52,80,95,325469
1.9306,0.3079,38.49,80,95,325472
1.8719,0.3324,38.52,80,95,325475
1.8817,0.3177,38.21,80,95,325479
1.8182,0.3079,38.4,80,95,325482
1.8035,0.2884,38.52,80,95,325485
1.8035,0.3079,38.55,80,95,325489
1.8084,0.3079,38.49,80,95,325492
1.8671,0.3275,38.3,80,95,325495
1.8426,0.3079,38.46,80,95,325498
1.8573,0.303,38.43,80,95,325502
1.8573,0.3128,38.05,80,95,325506
1.8671,0.3177,38.55,80,95,325509
1.9062,0.3177,38.33,80,95,325513
1.8671,0.3324,38.49,80,95,325516
1.8964,0.3128,38.4,80,95,325519
1.8719,0.3079,38.52,80,95,325523
1.8768,0.303,38.55,80,95,325526
1.911,0.3177,38.4,80,95,325529
1.8915,0.3079,38.43,80,95,325532
1.9257,0.3177,38.4,80,95,325536
1.911,0.303,38.3,79,95,325539
1.9599,0.3372,38.49,79,95,325543
1.9599,0.3079,38.52,79,95,325547
1.9599,0.3128,38.49,79,95,325550
1.9257,0.303,38.49,79,95,325554
1.9648,0.3177,38.24,79,95,325557
1.9257,0.3079,38.4,79,95,325560
1.9062,0.3128,38.52,79,95,325564
1.9013,0.3128,38.52,79,95,325567
1.8915,0.3079,38.55,79,95,325570
1.9746,0.3324,38.27,79,95,325574
1.9257,0.3128,38.43,79,95,325577
1.9257,0.3128,38.43,79,95,325580
1.8817,0.3079,38.52,79,95,325583
1.828,0.3128,38.52,79,95,325587
1.8328,0.3128,38.43,79,95,325591
1.7791,0.303,38.49,79,95,325594
1.8084,0.3128,38.4,79,95,325598
1.7644,0.3079,38.52,79,95,325601
1.7742,0.3568,38.55,79,95,325604
1.7986,0.3177,38.49,79,95,325608
1.7986,0.3079,38.52,79,95,325611
1.8377,0.3275,38.4,79,95,325614
1.828,0.3079,38.52,79,95,325617
1.8426,0.3079,38.52,79,95,325621
1.8671,0.3177,38.36,79,95,325624
1.8328,0.303,38.52,79,95,325627
1.8426,0.3128,38.33,79,95,325632
1.7937,0.3128,38.46,79,95,325635
1.7889,0.303,38.55,79,95,325638
1.7986,0.3128,38.46,79,95,325642
1.7889,0.3079,38.52,79,95,325645
1.828,0.3226,38.24,79,95,325648
1.8133,0.3128,38.52,79,95,325652
1.8035,0.3079,38.49,79,95,325655
1.8231,0.3128,38.46,79,95,325658
1.8133,0.3079,38.52,79,95,325661
1.8671,0.3226,38.24,79,95,325665
1.828,0.3079,38.43,79,95,325668
1.8475,0.2981,38.49,79,95,325671
1.8328,0.3079,38.58,79,95,325676
1.8475,0.2884,38.52,79,95,325679
1.9208,0.3275,38.3,79,95,325682
1.8915,0.3177,38.46,79,95,325686
1.8719,0.303,38.43,79,95,325689
1.8475,0.3079,38.52,79,95,325692
1.8328,0.3177,38.55,79,95,325696
1.8622,0.3177,38.36,79,95,325699
1.8524,0.303,38.49,79,95,325702
1.8426,0.3128,38.4,79,95,325705
1.8133,0.3079,38.49,79,95,325709
1.8133,0.3079,38.52,79,95,325712
1.8426,0.3177,38.4,79,95,325715
1.8231,0.3079,38.49,79,95,325720
1.8573,0.3226,38.43,79,95,325723
1.8475,0.303,38.55,79,95,325726
1.8915,0.3128,38.52,79,95,325730
1.9501,0.3128,38.43,79,95,325733
1.9501,0.3079,38.55,79,95,325736
1.9501,0.3128,38.3,79,95,325740
1.8573,0.3079,38.52,79,95,325743
1.8133,0.3079,38.49,79,95,325746
1.8035,0.3177,38.43,79,95,325749
1.7644,0.3079,38.52,79,95,325753
1.7986,0.3177,38.27,79,95,325756
1.7791,0.3079,38.49,79,95,325760
1.7742,0.3324,38.52,79,95,325764
1.8084,0.3079,38.58,79,95,325767
1.8182,0.3128,38.55,79,95,325770
1.8817,0.3275,38.24,79,95,325774
1.8524,0.3128,38.49,79,95,325777
1.8377,0.303,38.46,79,95,325780
1.8377,0.3079,38.52,79,95,325784
1.828,0.3275,38.49,79,95,325787
1.8768,0.3226,38.33,79,95,325790
1.8377,0.3177,38.55,79,95,325793
1.8377,0.3128,38.43,79,95,325797
1.8231,0.3372,38.52,79,95,325800
1.828,0.3079,38.55,79,95,325804
1.8573,0.3519,38.46,79,95,325808
1.8475,0.2884,38.52,79,95,325811
1.8573,0.3128,38.62,79,95,325814
1.8328,0.3079,38.52,79,95,325818
1.8377,0.3079,38.52,79,95,325821
1.8719,0.3177,38.4,79,95,325824
1.8475,0.3079,38.55,79,95,325828
1.8719,0.3421,38.33,79,95,325831
1.8524,0.3079,38.43,79,95,325834
1.8622,0.3079,38.46,79,95,325837
1.8671,0.3128,38.43,79,95,325841
1.8377,0.3079,38.46,79,95,325844
1.8475,0.3128,38.3,79,95,325848
1.8035,0.3079,38.21,79,95,325852
1.8084,0.3079,38.52,79,95,325855
1.8426,0.3128,38.46,79,95,325858
1.8475,0.3079,38.55,79,95,325862
1.8915,0.3226,38.24,79,95,325865
1.828,0.3079,38.49,79,95,325868
1.7986,0.303,38.52,79,95,325872
1.7791,0.3128,38.49,79,95,325875
1.7693,0.3079,38.52,79,95,325878
1.8231,0.3324,38.33,79,95,325881
1.8035,0.3128,38.46,79,95,325885
1.8084,0.303,38.43,79,95,325889
1.828,0.3079,38.52,79,95,325892
1.8622,0.3128,37.83,79,95,325896
1.9257,0.3226,38.33,79,95,325899
1.9062,0.3079,38.36,79,95,325902
1.9599,0.3128,38.4,79,95,325906
1.9746,0.3079,38.49,79,95,325909
1.9892,0.3079,38.55,79,95,325912
2.0088,0.3128,38.43,79,95,325916
1.9648,0.3079,38.52,79,95,325919
1.9599,0.347,38.4,79,95,325922
1.8964,0.303,38.49,79,95,325925
1.8817,0.3079,38.52,79,95,325929
1.8671,0.3079,38.52,79,95,325933
1.8377,0.303,38.49,79,95,325936
1.8426,0.3128,38.36,79,95,325940
1.828,0.2884,38.55,79,95,325943
1.784,0.3079,38.55,79,95,325946
1.8084,0.3079,38.49,79,95,325950
1.7986,0.3079,38.52,79,95,325953
1.828,0.3177,38.3,79,95,325956
1.8035,0.3128,38.43,79,95,325959
1.7889,0.2981,38.52,79,95,325963
1.8035,0.3177,38.52,79,95,325966
1.8035,0.3079,38.52,79,95,325969
1.8426,0.3177,38.24,79,95,325974
1.7889,0.3128,38.46,79,95,325977
1.7742,0.303,38.52,79,95,325980
1.7644,0.3079,38.49,79,95,325984
1.74,0.3079,38.52,79,95,325987
1.7986,0.3275,38.33,79,95,325990
1.7595,0.3128,38.46,79,95,325994
1.7546,0.3128,38.43,79,95,325997
1.7498,0.3079,38.49,79,95,326000
1.7595,0.3079,38.52,79,95,326003
1.7937,0.3079,38.49,79,95,326007
1.7937,0.3079,38.55,79,95,326010
1.8182,0.3128,38.4,79,95,326013
1.8182,0.303,38.52,79,95,326018
1.8231,0.3079,38.52,79,95,326021
1.8426,0.3177,38.24,79,95,326024
1.8133,0.3079,38.52,79,95,326028
1.8964,0.3079,38.4,79,95,326031
1.9697,0.3226,38.49,79,95,326034
2.1163,0.3079,38.49,79,95,326038
2.2532,0.3177,38.46,79,95,326041
2.3167,0.3079,38.52,79,95,326044
2.3754,0.3128,38.33,79,95,326047
2.3069,0.3128,38.55,79,95,326051
2.175,0.2884,38.52,79,95,326054
2.0186,0.3079,38.43,79,95,326057
1.7937,0.3079,38.46,79,95,326062
1.6276,0.3226,38.24,79,95,326065
1.3881,0.303,38.46,79,95,326068
1.2121,0.3128,38.52,79,95,326072
1.085,0.3128,38.49,79,95,326075
1.0068,0.303,38.55,79,95,326078
1.0411,0.3372,38.24,79,95,326081
1.1241,0.3128,38.46,79,95,326085
1.2757,0.303,38.55,79,95,326088
1.4614,0.3079,38.52,79,95,326091
1.5982,0.3079,38.52,79,95,326095
1.7693,0.3275,38.3,79,95,326098
1.8035,0.3128,38.49,79,95,326102
1.8622,0.3079,38.4,79,95,326106
1.8817,0.303,38.55,79,95,326109
1.9062,0.3079,38.55,79,95,326112
1.955,0.3226,38.4,79,95,326115
1.9404,0.3275,38.49,79,95,326119
1.9746,0.3128,38.43,79,95,326122
1.9795,0.3275,38.52,79,95,326125
1.999,0.3079,38.55,79,95,326129
2.0186,0.3128,38.46,79,95,326132
1.9697,0.303,38.52,79,95,326135
1.9501,0.3177,38.4,79,95,326139
1.8817,0.3079,38.52,79,95,326142
1.8915,0.3079,38.52,79,95,326146
1.8768,0.3177,38.43,77,96,326150
1.8328,0.3079,38.52,77,96,326153
1.828,0.3079,38.52,77,96,326157
1.8866,0.3177,38.24,77,96,326160
1.8475,0.3079,38.46,77,96,326163
1.8524,0.2933,38.49,77,96,326166
1.8671,0.3079,38.49,77,96,326170
1.8671,0.3079,38.55,77,96,326173
1.9208,0.3177,38.3,77,96,326176
1.8915,0.3128,38.3,77,96,326180
1.8817,0.3128,38.43,77,96,326183
1.8768,0.3079,38.49,77,96,326187
1.8622,0.3324,38.52,77,96,326191
1.8817,0.3226,38.43,77,96,326194
1.828,0.3079,38.52,77,96,326197
1.8328,0.3128,38.4,77,96,326201
1.8133,0.3079,38.58,77,96,326204
1.8231,0.2981,38.52,77,96,326207
1.8622,0.3177,38.33,77,96,326210
1.8475,0.3128,38.52,77,96,326214
1.8817,0.3079,38.68,77,96,326217
1.8573,0.3079,38.46,77,96,326220
1.8719,0.3079,38.52,77,96,326224
1.8817,0.3128,38.49,77,96,326227
1.8573,0.3079,38.52,77,96,326231
1.8671,0.3128,38.3,77,96,326235
1.8084,0.3128,38.46,77,96,326238
1.7986,0.3079,38.65,77,96,326241
1.8084,0.3324,38.43,77,96,326245
1.7889,0.3079,38.52,77,96,326248
1.828,0.3177,38.21,77,96,326251
1.7986,0.3128,38.46,77,96,326254
1.8133,0.3079,38.52,77,96,326258
1.828,0.3324,38.49,77,96,326261
1.828,0.3079,38.52,77,96,326264
1.8817,0.3226,38.24,77,96,326268
1.8719,0.3128,38.49,77,96,326272
1.8328,0.303,38.46,77,96,326275
1.8328,0.3128,38.49,77,96,326279
1.828,0.3079,38.55,77,96,326282
1.8915,0.3226,38.4,77,96,326285
1.8475,0.3128,38.49,77,96,326289
1.8719,0.3128,38.43,77,96,326292
1.8719,0.3128,38.52,77,96,326295
1.8866,0.3079,38.52,77,96,326298
1.9062,0.3177,38.52,77,96,326302
1.8817,0.3177,38.49,77,96,326305
1.8768,0.3128,38.36,77,96,326308
1.8475,0.3128,38.55,77,96,326312
1.8524,0.3079,38.55,77,96,326316
1.8866,0.3079,38.43,77,96,326319
1.8964,0.3128,38.52,77,96,326323
1.9404,0.3128,38.4,77,96,326326
1.9306,0.303,38.52,77,96,326329
1.955,0.303,38.52,77,96,326333
1.9892,0.3079,38.43,77,96,326336
1.9795,0.303,38.49,77,96,326339
2.0235,0.3128,38.3,77,96,326342
1.9844,0.3079,38.43,77,96,326346
1.9501,0.3079,38.52,77,96,326349
1.9306,0.3128,38.49,77,96,326352
1.9013,0.3079,38.55,77,96,326356
1.9453,0.3177,38.24,77,96,326360
1.8719,0.3372,38.46,77,96,326363
1.8671,0.3079,38.52,77,96,326367
1.8622,0.3128,38.55,77,96,326370
1.8719,0.2981,38.52,77,96,326373
1.8866,0.3275,38.27,77,96,326377
1.8671,0.3177,38.43,77,96,326380
1.8133,0.3079,38.46,77,96,326383
1.8035,0.3079,38.49,77,96,326386
1.7986,0.3079,38.52,77,96,326390
1.8328,0.3226,38.4,77,96,326393
1.8035,0.2981,38.49,77,96,326396
1.8133,0.3128,38.4,77,96,326401
1.7889,0.3079,38.52,77,96,326404
1.7937,0.3079,38.52,77,96,326407
1.828,0.3079,38.36,77,96,326411
1.8084,0.2981,38.52,77,96,326414
1.8524,0.3226,38.46,77,96,326417
1.828,0.3128,38.52,77,96,326420
1.828,0.3079,38.49,77,96,326424
1.8426,0.3128,38.52,77,96,326427
1.828,0.3079,38.43,77,96,326430
1.8475,0.3079,38.36,77,96,326434
1.828,0.2884,38.49,77,96,326437
1.8377,0.3079,38.52,77,96,326440
1.8573,0.3128,38.4,77,96,326445
1.8328,0.3079,38.52,77,96,326448
1.8573,0.3128,38.36,77,96,326451
1.8084,0.303,38.49,77,96,326455
1.8084,0.3079,38.52,77,96,326458
1.828,0.3275,38.46,77,96,326461
1.8084,0.3079,38.52,77,96,326464
1.8671,0.3177,38.24,77,96,326468
1.8622,0.3128,38.4,77,96,326471
1.8573,0.303,38.52,77,96,326474
1.8622,0.3128,38.49,77,96,326478
1.8573,0.3079,38.52,77,96,326481
1.9013,0.3421,38.3,77,96,326484
1.8475,0.3128,38.49,77,96,326489
1.828,0.3079,38.43,77,96,326492
1.8182,0.3275,38.52,77,96,326495
1.8084,0.3079,38.52,77,96,326498
1.8426,0.3079,38.4,77,96,326502
1.8133,0.3372,38.46,77,96,326505
1.828,0.3128,38.4,77,96,326508
1.8182,0.3079,38.55,77,96,326512
1.8377,0.2981,38.52,77,96,326515
1.8671,0.3128,38.58,77,96,326518
1.8524,0.3128,38.52,77,96,326522
1.8768,0.3177,38.43,77,96,326525
1.8573,0.2981,38.52,77,96,326529
1.8328,0.3079,38.52,77,96,326533
1.8622,0.3177,38.36,77,96,326536
1.8377,0.3079,38.52,77,96,326539
1.8671,0.3128,38.4,77,96,326542
1.8426,0.3128,38.43,77,96,326546
1.8377,0.3079,38.52,77,96,326549
1.8573,0.3128,38.4,77,96,326552
1.8524,0.2884,38.52,77,96,326556
1.9013,0.3177,37.49,77,96,326559
1.8573,0.3128,38.46,77,96,326562
1.8573,0.3079,38.52,77,96,326566
1.8671,0.3128,38.52,77,96,326569
1.8524,0.3079,38.52,77,96,326573
1.8915,0.3177,38.24,77,96,326577
1.8377,0.3128,38.43,77,96,326580
1.8328,0.303,38.49,77,96,326583
1.8328,0.3079,38.46,77,96,326586
1.828,0.3079,38.52,77,96,326590
1.9013,0.3275,38.3,77,96,326593
1.8866,0.3421,38.43,77,96,326596
1.8964,0.3128,38.43,77,96,326600
1.8817,0.3275,38.55,77,96,326603
1.8768,0.303,38.52,77,96,326606
1.911,0.3177,38.58,77,96,326610
1.8768,0.3079,38.55,77,96,326614
1.9062,0.3079,38.4,77,96,326617
1.8915,0.303,38.52,77,96,326621
1.911,0.2981,38.55,77,96,326624
1.9453,0.3079,38.46,77,96,326627
1.9404,0.3079,38.52,77,96,326630
1.9746,0.3128,38.46,77,96,326634
1.9501,0.3079,38.55,77,96,326637
1.9648,0.3128,38.52,77,96,326640
1.9844,0.3128,38.4,77,96,326644
1.9795,0.303,38.52,77,96,326647
1.999,0.3128,38.33,77,96,326650
1.9355,0.2981,38.52,77,96,326654
1.9013,0.2884,38.52,77,96,326658
1.8475,0.3177,37.71,77,96,326661
1.8182,0.2981,38.55,77,96,326665
1.8182,0.3177,37.59,77,96,326668
1.784,0.3226,38.43,77,96,326671
1.7742,0.3079,38.52,77,96,326674
1.7791,0.3372,38.55,77,96,326678
1.7791,0.3079,38.52,77,96,326681
1.8328,0.3275,38.27,77,96,326684
1.7986,0.3128,38.49,77,96,326688
1.7889,0.303,38.81,77,96,326691
1.7937,0.3128,38.55,77,96,326694
1.7937,0.3079,38.55,77,96,326699
1.8377,0.3226,38.36,77,96,326702
1.7986,0.3128,38.49,77,96,326705
1.7791,0.3128,38.77,77,96,326709
1.7449,0.3128,38.52,77,96,326712
1.7302,0.3079,38.58,77,96,326715
1.7449,0.3226,38.46,77,96,326718
1.7302,0.3079,38.52,77,96,326722
1.7595,0.3079,38.4,77,96,326725
1.74,0.3079,38.52,77,96,326728
1.7595,0.3079,38.52,77,96,326732
1.8035,0.3177,38.33,77,96,326735
1.784,0.3079,38.55,77,96,326738
1.8084,0.3079,38.43,77,96,326743
1.7986,0.3128,38.46,77,96,326746
1.8475,0.3079,38.55,77,96,326749
1.955,0.3079,38.43,77,96,326752
2.0723,0.2981,38.49,77,96,326756
2.2483,0.3128,38.3,77,96,326759
2.1896,0.3226,38.24,77,96,326763
1.9697,0.3177,38.43,77,96,326766
1.7693,0.303,38.46,77,96,326769
1.564,0.3079,38.49,77,96,326773
1.3881,0.3079,38.55,77,96,326776
1.2072,0.3226,38.33,77,96,326779
1.0606,0.3128,38.49,77,96,326784
1.002,0.3128,38.46,77,96,326787
1.0117,0.3079,38.49,77,96,326790
1.1193,0.3421,38.52,77,96,326794
1.3099,0.3079,38.33,77,96,326797
1.4663,0.3079,38.49,77,96,326800
1.6422,0.3128,38.4,77,96,326803
1.7302,0.3079,38.71,77,96,326807
1.8035,0.3079,38.52,77,96,326810
1.8671,0.3128,38.46,77,96,326813
1.8915,0.3079,38.68,77,96,326817
1.9404,0.3128,38.4,77,96,326820
1.9306,0.3079,38.52,77,96,326823
1.9355,0.3079,38.58,77,96,326828
1.955,0.3128,38.43,77,96,326831
1.9404,0.3079,38.52,77,96,326834
1.9697,0.3128,38.36,77,96,326837
1.9453,0.2981,38.55,77,96,326841
1.9453,0.3079,38.05,77,96,326844
1.9501,0.3421,38.55,77,96,326847
1.9257,0.3079,38.55,77,96,326851
1.9599,0.3177,38.27,77,96,326854
1.9257,0.3177,38.46,77,96,326857
1.8915,0.3079,38.55,77,96,326861
1.8866,0.3177,38.49,77,96,326864
1.8817,0.3079,38.52,77,96,326867
1.9355,0.3275,38.24,77,96,326872
1.8964,0.3128,38.46,77,96,326875
1.911,0.303,38.52,77,96,326878
1.9355,0.3226,38.49,77,96,326881
1.9355,0.3079,38.52,77,96,326885
1.9697,0.3275,38.3,77,96,326888
1.9257,0.3128,38.46,77,96,326891
1.8866,0.3128,38.4,77,96,326895
1.8524,0.3079,38.49,77,96,326898
1.8573,0.3079,38.52,77,96,326901
1.8866,0.3177,38.46,77,96,326905
1.8768,0.2981,38.52,77,96,326908
1.9013,0.3128,38.36,77,96,326912
1.8915,0.3128,38.52,77,96,326916
1.8719,0.3079,38.52,77,96,326919
1.9062,0.3275,38.4,77,96,326922
1.8817,0.3079,38.52,77,96,326925
1.9159,0.3079,38.49,77,96,326929
1.8964,0.3128,38.43,77,96,326932
1.8964,0.3079,38.52,77,96,326935
1.8964,0.3177,38.46,77,96,326939
1.8817,0.3079,38.52,77,96,326942
1.9208,0.3128,38.33,77,96,326945
1.9159,0.2981,38.52,77,96,326949
1.8768,0.3079,38.55,77,96,326952
1.8964,0.3177,38.49,77,96,326956
1.8964,0.2884,38.52,77,96,326960
1.9257,0.3177,38.27,77,96,326963
1.8915,0.3128,38.43,77,96,326966
1.8768,0.303,38.52,77,96,326969
1.8671,0.3079,38.52,77,96,326973
1.8475,0.3079,38.52,77,96,326976
1.8964,0.3275,38.24,77,96,326979
1.8866,0.3128,38.49,77,96,326983
1.8475,0.303,38.46,77,96,326986
1.8377,0.3079,38.55,77,96,326989
1.8377,0.3079,38.52,77,96,326993
1.8866,0.3177,38.33,77,96,326996
1.8671,0.3079,38.52,77,96,327000
1.8964,0.3128,38.49,77,96,327004
1.8817,0.2884,38.52,77,96,327007
1.8719,0.3079,38.55,77,96,327010
1.8768,0.3226,38.46,77,96,327013
1.8524,0.3079,38.52,77,96,327017
1.8671,0.3177,38.4,77,96,327020
1.8328,0.2981,38.52,77,96,327023
1.8524,0.3128,38.55,77,96,327027
1.8719,0.3177,38.43,77,96,327030
1.8768,0.3079,38.55,77,96,327033
1.9159,0.3128,38.33,77,96,327037
1.911,0.3079,38.55,77,96,327041
1.9306,0.303,38.49,77,96,327044
1.9648,0.3128,38.46,77,96,327048
1.9599,0.3079,38.43,77,96,327051
2.0088,0.3226,38.27,77,96,327054
1.9746,0.3128,38.43,77,96,327057
1.9501,0.3079,38.55,77,96,327061
1.955,0.3128,38.49,77,96,327064
1.9404,0.3079,38.55,77,96,327067
1.9844,0.3226,38.18,77,96,327071
1.9257,0.3128,38.58,77,96,327074
1.9062,0.303,38.46,77,96,327077
1.8915,0.3128,38.49,77,96,327081
1.8719,0.3079,38.52,77,96,327085
1.911,0.3275,38.3,77,96,327088
1.8866,0.3177,38.46,77,96,327091
1.8475,0.3128,38.43,77,96,327095
1.8231,0.3079,38.52,77,96,327098
1.8133,0.3079,38.55,77,96,327101
1.8426,0.3079,38.43,77,96,327105
1.8084,0.3177,38.55,77,96,327108
1.8231,0.3079,38.49,77,96,327111
1.8084,0.3079,38.55,77,96,327115
1.8133,0.3079,38.55,77,96,327118
1.8573,0.3372,38.4,77,96,327121
1.8328,0.3079,38.62,77,96,327126
1.8671,0.3079,38.36,77,96,327129
1.8377,0.3079,38.46,77,96,327132
1.828,0.3079,38.52,77,96,327135
1.8328,0.3177,38.55,77,96,327139
1.8182,0.3079,38.55,77,96,327142
1.8426,0.3128,38.27,77,96,327145
1.8084,0.3079,38.52,77,96,327149
1.7937,0.3079,38.74,77,96,327152
1.8133,0.3226,38.43,77,96,327155
1.8035,0.3079,38.52,77,96,327159
1.8671,0.3177,38.27,77,96,327162
1.8426,0.3079,38.46,77,96,327165
1.8426,0.3372,38.52,77,96,327170
1.8524,0.3128,38.49,77,96,327173
1.8426,0.3226,38.52,77,96,327176
1.9013,0.3275,38.3,77,96,327180
1.8719,0.3177,38.4,77,96,327183
1.8524,0.303,38.46,77,96,327186
1.8377,0.3128,38.52,77,96,327189
1.828,0.3079,38.52,77,96,327193
1.8573,0.3226,38.36,77,96,327196
1.8231,0.303,38.46,77,96,327199
1.8377,0.3128,38.4,77,96,327203
1.8084,0.3079,38.62,77,96,327206
1.8035,0.3079,38.58,77,96,327209
1.8328,0.3177,38.43,77,96,327214
1.8182,0.3079,38.58,77,96,327217
1.8475,0.3226,38.43,77,96,327220
1.8328,0.3079,38.52,77,96,327223
1.8377,0.3079,38.55,77,96,327227
1.8573,0.3128,38.46,77,96,327230
1.8475,0.3079,38.49,77,96,327233
1.8671,0.3128,38.43,77,96,327237
1.8426,0.3079,38.65,77,96,327240
1.8524,0.2981,38.55,77,96,327243
1.8671,0.3079,38.43,77,96,327247
1.8426,0.3079,38.55,77,96,327250
1.8768,0.3177,38.3,77,96,327254
1.8524,0.3128,38.4,77,96,327258
1.8573,0.2981,38.52,77,96,327261
1.8719,0.3079,38.52,77,96,327264
1.8573,0.3079,38.52,77,96,327268
1.8964,0.3226,38.24,77,96,327271
1.8377,0.3128,38.46,77,96,327274
1.8133,0.303,38.52,77,96,327277
1.8133,0.3079,38.52,77,96,327281
1.8084,0.3079,38.52,77,96,327284
1.8768,0.3079,38.33,77,96,327287
1.8573,0.303,38.46,77,96,327291
1.8671,0.3128,38.43,77,96,327294
1.8719,0.3079,38.49,77,96,327298
1.8768,0.3079,38.52,77,96,327302
1.9062,0.3177,38.43,77,96,327305
1.8964,0.3128,38.49,77,96,327308
1.9013,0.3128,38.4,77,96,327311
1.8866,0.3128,38.52,77,96,327315
1.8964,0.3079,38.52,77,96,327318
1.9453,0.3177,38.36,77,96,327321
1.9208,0.3079,38.52,77,96,327325
1.9501,0.3128,37.65,77,96,327328
1.911,0.2981,38.46,77,96,327331
1.911,0.3079,38.58,77,96,327335
1.911,0.3177,38.43,77,96,327339
1.8915,0.3079,38.52,77,96,327342
1.9062,0.3128,38.36,77,96,327346
1.8622,0.2981,38.49,77,96,327349
1.8426,0.3079,38.52,77,96,327352
1.8475,0.3519,38.46,77,96,327355
1.8035,0.3079,38.52,77,96,327359
1.8426,0.3177,38.27,77,96,327362
1.7937,0.3128,38.46,77,96,327365
1.7889,0.3079,38.55,77,96,327369
1.7937,0.3079,38.49,77,96,327372
1.7644,0.303,38.52,77,96,327376
1.7498,0.3079,38.52,77,96,327379
1.7742,0.3177,38.33,77,96,327383
1.7498,0.3079,38.52,77,96,327387
1.7693,0.3079,38.36,77,96,327390
1.7595,0.3079,38.55,77,96,327393
1.7742,0.3079,38.52,77,96,327397
1.8084,0.3226,38.46,77,96,327400
1.7986,0.3079,38.52,77,96,327403
1.828,0.3079,38.4,77,96,327406
1.7791,0.3079,38.49,77,96,327410
1.7644,0.3079,38.52,77,96,327413
1.7546,0.3128,38.36,77,96,327416
1.7253,0.3177,38.55,77,96,327420
1.7498,0.3128,38.33,77,96,327424
1.7351,0.2884,38.55,77,96,327427
1.7791,0.3079,38.52,77,96,327431
1.8915,0.3177,38.46,77,96,327434
2.0235,0.3079,38.62,77,96,327437
2.2385,0.3226,38.27,77,96,327441
2.346,0.3128,38.43,77,96,327444
2.3998,0.3079,38.52,77,96,327447
2.4438,0.3128,38.52,77,96,327451
2.39,0.3079,38.52,77,96,327454
2.3265,0.3275,38.4,77,96,327457
2.0821,0.3128,38.49,77,96,327460
1.8524,0.303,38.46,77,96,327464
1.6178,0.3079,38.49,77,96,327468
1.3881,0.3128,38.52,77,96,327471
1.2268,0.3226,38.4,77,96,327475
1.0704,0.3128,38.49,77,96,327478
1.002,0.3128,38.4,77,96,327481
1.0166,0.3079,38.52,77,96,327485
1.1193,0.303,38.52,77,96,327488
1.3148,0.3177,38.46,77,96,327491
1.4761,0.3079,38.52,77,96,327494
1.6373,0.3128,38.36,77,96,327498
1.7107,0.3079,38.55,77,96,327501
1.7937,0.3079,38.52,77,96,327504
1.8377,0.3079,38.15,77,96,327508
1.8671,0.3079,38.52,77,96,327512
1.8866,0.3128,38.36,77,96,327515
1.8866,0.3421,38.43,77,96,327519
1.9013,0.3079,38.55,77,96,327522
1.9257,0.3128,38.46,77,96,327525
1.9599,0.3079,38.52,77,96,327529
1.9844,0.3128,38.3,77,96,327532
1.9453,0.3226,38.52,77,96,327535
1.9306,0.3079,38.52,77,96,327538
1.9257,0.3177,38.46,77,96,327542
1.8964,0.3177,38.55,77,96,327545
1.9355,0.3177,38.24,77,96,327548
1.8915,0.3128,38.43,77,96,327553
1.8866,0.303,38.58,77,96,327556
1.8866,0.3079,38.49,77,96,327559
1.8817,0.3079,38.52,77,96,327563
1.9355,0.3275,38.33,77,96,327566
1.8964,0.347,38.46,77,96,327569
1.9013,0.3079,38.43,77,96,327573
1.9062,0.3177,38.52,77,96,327576
1.9159,0.3079,38.52,77,96,327579
1.9501,0.3177,37.62,77,96,327582
1.9208,0.3128,38.49,77,96,327586
1.9355,0.3128,38.4,77,96,327589
