1.608,0.3079,37.93,55,98,342976
1.6227,0.3079,37.93,55,98,342980
1.6569,0.3177,37.8,55,98,342983
1.6422,0.3324,37.9,55,98,342986
1.6911,0.3128,37.8,55,98,342990
1.6618,0.303,37.9,55,98,342993
1.6764,0.3079,37.93,55,98,342996
1.696,0.3079,37.83,55,98,343001
1.6911,0.3079,38.11,55,98,343004
1.7302,0.3324,37.71,55,98,343007
1.7009,0.3079,37.87,55,98,343011
1.7107,0.303,37.93,55,98,343014
1.7253,0.3372,37.83,55,98,343017
1.7009,0.3079,37.93,55,98,343020
1.7498,0.3177,37.68,55,98,343024
1.7155,0.2981,37.83,55,98,343027
1.7204,0.303,37.96,55,98,343030
1.7253,0.3079,38.08,55,98,343034
1.7155,0.3079,37.96,55,98,343037
1.7644,0.3226,37.68,55,98,343041
1.7351,0.347,37.9,55,98,343045
1.7253,0.2981,37.9,55,98,343048
1.7204,0.3079,37.83,55,98,343051
1.7253,0.3079,37.99,55,98,343054
1.784,0.3177,37.71,55,98,343058
1.7204,0.3079,37.93,55,98,343061
1.7253,0.3128,37.83,55,98,343064
1.7155,0.3079,37.93,55,98,343068
1.7204,0.303,38.15,55,98,343071
1.7449,0.3226,37.8,55,98,343074
1.7302,0.3128,37.9,55,98,343078
1.7449,0.3128,37.8,55,98,343081
1.7204,0.3226,37.96,55,98,343085
1.7351,0.3079,37.96,55,98,343088
1.7498,0.303,37.1,55,98,343092
1.7351,0.3128,37.93,55,98,343095
1.7644,0.3128,37.8,55,98,343098
1.7302,0.3079,37.93,55,98,343102
1.7644,0.2981,37.93,55,98,343105
1.7546,0.3177,37.87,55,98,343108
1.7742,0.2981,37.93,55,98,343112
1.7742,0.3128,37.71,55,98,343115
1.7498,0.3128,37.8,55,98,343118
1.7498,0.303,37.93,55,98,343122
1.7742,0.3177,38.08,55,98,343126
1.7595,0.3177,37.93,55,98,343129
1.8084,0.3177,37.65,55,98,343132
1.7693,0.3079,37.83,55,98,343136
1.7693,0.3079,37.93,55,98,343139
1.784,0.3128,37.9,55,98,343142
1.7742,0.303,37.93,55,98,343146
1.828,0.3226,37.59,55,98,343149
1.7986,0.3128,37.8,55,98,343152
1.7889,0.303,37.93,55,98,343156
1.7889,0.3079,37.9,55,98,343159
1.8084,0.3079,37.93,55,98,343162
1.8426,0.3275,37.77,55,98,343165
1.8084,0.3079,37.77,55,98,343170
1.8133,0.3079,37.83,55,98,343173
1.7986,0.3079,37.93,55,98,343176
1.7986,0.3079,37.99,55,98,343180
1.8328,0.3666,37.77,55,98,343183
1.8084,0.3128,37.9,55,98,343186
1.828,0.3079,37.83,55,98,343190
1.7986,0.3079,37.99,55,98,343193
1.7937,0.2981,37.96,55,98,343196
1.8182,0.3177,37.87,55,98,343199
1.7986,0.3079,37.9,55,98,343203
1.8328,0.3275,37.83,55,98,343206
1.7986,0.3079,37.99,55,98,343209
1.8035,0.3079,37.96,55,98,343214
1.8182,0.3128,37.77,55,98,343217
1.7986,0.3079,38.02,55,98,343220
1.828,0.3128,37.71,55,98,343224
1.8035,0.3079,37.96,55,98,343227
1.8182,0.3079,38.02,55,98,343230
1.8377,0.3177,37.87,55,98,343233
1.8182,0.3079,37.96,55,98,343237
1.8573,0.3177,37.65,55,98,343240
1.828,0.3128,37.83,55,98,343243
1.8133,0.3079,37.93,55,98,343247
1.828,0.3128,37.9,55,98,343250
1.8524,0.2884,37.93,55,98,343254
1.8768,0.3177,37.65,55,98,343258
1.8573,0.3128,37.83,55,98,343261
1.8377,0.303,37.93,55,98,343264
1.8426,0.3128,37.99,55,98,343268
1.8426,0.2981,37.99,55,98,343271
1.9013,0.3275,37.71,55,98,343274
1.8671,0.3128,38.08,55,98,343277
1.8573,0.3177,37.83,55,98,343281
1.8475,0.3128,37.93,55,98,343284
1.8475,0.3079,38.02,55,98,343289
1.8475,0.3079,37.96,55,98,343292
1.8622,0.3519,37.8,55,98,343296
1.8231,0.3079,37.93,55,98,343300
1.8573,0.3079,37.74,55,98,343303
1.8377,0.3226,37.83,55,98,343306
1.8475,0.3079,37.93,55,98,343310
1.8671,0.3128,37.87,55,98,343313
1.8671,0.3079,37.96,55,98,343316
1.9013,0.3128,37.68,55,98,343320
1.8622,0.3128,37.87,55,98,343323
1.8622,0.3079,37.93,55,98,343326
1.8719,0.3128,37.87,55,98,343329
1.8671,0.3079,37.93,55,98,343333
1.9062,0.3177,37.68,55,98,343336
1.8573,0.3128,37.83,55,98,343340
1.8622,0.303,37.96,55,98,343344
1.8475,0.3128,37.93,55,98,343347
1.8475,0.303,37.99,55,98,343350
1.9159,0.3275,37.74,55,98,343354
1.8671,0.3079,37.9,55,98,343357
1.8671,0.2981,37.87,55,98,343360
1.8524,0.3079,37.99,55,98,343363
1.8475,0.303,37.96,55,98,343367
1.8768,0.3177,37.8,55,98,343370
1.8524,0.3079,37.87,55,98,343373
1.8768,0.3128,37.8,55,98,343377
1.8475,0.3079,37.93,55,98,343380
1.8524,0.3079,37.99,55,98,343384
1.8719,0.3128,37.8,55,98,343388
1.8524,0.3079,37.93,55,98,343391
1.8768,0.3128,38.24,55,98,343394
1.8328,0.3226,37.96,55,98,343398
1.8377,0.3079,37.93,55,98,343401
1.8475,0.3079,37.8,55,98,343404
1.8426,0.2981,37.93,55,98,343407
1.8622,0.3128,37.77,55,98,343411
1.8328,0.3421,37.96,55,98,343414
1.8524,0.2884,37.99,55,98,343417
1.8719,0.3079,37.87,55,98,343421
1.8719,0.3079,37.93,55,98,343425
1.9257,0.3177,37.68,55,98,343428
1.911,0.3128,37.9,55,98,343432
1.9159,0.3079,37.93,55,98,343435
1.9355,0.3079,37.9,55,98,343438
1.9208,0.3079,37.93,55,98,343441
1.9697,0.3226,37.62,55,98,343445
1.9355,0.3128,37.83,55,98,343448
1.9453,0.303,37.96,55,98,343451
1.9648,0.3177,37.93,55,98,343455
1.9599,0.3079,37.96,55,98,343458
2.0088,0.3079,37.8,55,98,343461
1.9453,0.3324,37.83,55,98,343465
1.9208,0.2884,37.9,55,98,343469
1.8964,0.3079,37.93,55,98,343472
1.8915,0.3079,37.96,55,98,343475
1.9355,0.3177,37.83,55,98,343479
1.8866,0.3079,37.9,55,98,343482
1.9013,0.303,37.8,55,98,343485
1.8671,0.3079,37.93,55,98,343489
1.8524,0.3079,37.9,55,98,343492
1.8573,0.347,37.74,55,98,343495
1.7986,0.3079,37.93,55,98,343499
1.7986,0.3079,37.87,55,98,343502
1.7449,0.3177,37.9,55,98,343505
1.7351,0.2981,37.99,55,98,343508
1.74,0.3128,37.83,55,98,343513
1.7155,0.3079,37.93,55,98,343516
1.74,0.3128,37.77,55,98,343519
1.7155,0.3079,37.93,55,98,343523
1.7253,0.3079,37.96,55,98,343526
1.74,0.3128,37.83,55,98,343529
1.7253,0.3079,37.77,55,98,343533
1.7644,0.3128,37.68,55,98,343536
1.7302,0.303,37.93,55,98,343539
1.74,0.3128,37.96,55,98,343543
1.7595,0.3128,37.93,55,98,343546
1.74,0.3079,37.93,55,98,343549
1.7937,0.3226,37.68,55,98,343553
1.7693,0.3128,37.93,55,98,343557
1.7644,0.303,37.93,55,98,343560
1.7644,0.2981,37.93,55,98,343563
1.7644,0.303,37.93,55,98,343567
1.8231,0.3275,37.83,55,98,343570
1.7986,0.3128,37.83,55,98,343573
1.8084,0.303,37.13,55,98,343577
1.8035,0.303,37.93,55,98,343580
1.8084,0.2884,37.96,55,98,343583
1.8035,0.3177,37.77,55,98,343586
1.7253,0.3128,38.02,55,98,343590
1.6813,0.3177,37.8,55,98,343593
1.6325,0.3128,37.93,55,98,343597
1.7155,0.3177,37.93,55,98,343601
1.9795,0.3177,37.93,55,98,343604
2.3949,0.3079,37.93,55,98,343607
3.0938,0.3226,37.83,55,98,343611
3.8025,0.3079,37.99,55,98,343614
4.3353,0.3177,37.96,55,98,343617
4.6823,0.3177,37.83,55,98,343621
4.7898,0.3079,37.87,55,98,343624
4.8338,0.3079,37.8,55,98,343627
4.4428,0.3128,37.87,55,98,343630
3.7537,0.3079,37.93,55,98,343634
2.9717,0.3177,37.83,55,98,343638
2.2532,0.3079,37.93,55,98,343641
1.7791,0.3177,37.71,55,98,343645
1.4272,0.3128,37.9,55,98,343648
1.2512,0.303,37.96,55,98,343651
1.1828,0.3079,37.87,55,98,343655
1.1388,0.3177,37.96,55,98,343658
1.1681,0.3226,37.68,55,98,343661
1.129,0.3128,37.83,55,98,343664
1.1241,0.2981,37.93,55,98,343668
1.1339,0.3079,37.8,55,98,343671
1.1388,0.3128,37.93,55,98,343674
1.1926,0.3275,37.74,55,98,343678
1.1779,0.3079,37.96,55,98,343682
1.1926,0.3275,37.87,55,98,343685
1.2121,0.3079,38.05,55,98,343689
1.2414,0.2981,37.96,55,98,343692
1.3343,0.3177,37.77,55,98,343695
1.3148,0.3079,37.9,55,98,343699
1.3587,0.303,37.8,55,98,343702
1.4027,0.3128,37.96,55,98,343705
1.3978,0.3079,37.93,55,98,343708
1.4516,0.3079,37.83,55,98,343712
1.4614,0.3079,37.93,55,98,343715
1.5054,0.3177,37.9,55,98,343718
1.5005,0.3079,37.96,55,98,343723
1.5347,0.3079,37.96,55,98,343726
1.5689,0.3177,37.83,55,98,343729
1.6178,0.2981,37.93,55,98,343733
1.6422,0.3079,37.83,55,98,343736
1.6667,0.2981,37.96,55,98,343739
1.6618,0.3079,37.93,55,98,343742
1.6862,0.3177,37.83,55,98,343746
1.6862,0.3079,37.96,55,98,343749
1.7449,0.3128,37.77,55,98,343752
1.7351,0.3226,37.83,55,98,343756
1.7449,0.3079,37.93,55,98,343759
1.7742,0.3177,37.87,55,98,343762
1.7644,0.3079,37.96,55,98,343767
1.828,0.3079,37.65,55,98,343770
1.8035,0.3177,37.83,55,98,343773
1.8084,0.303,37.93,55,98,343777
1.8426,0.3128,37.93,55,98,343780
1.8426,0.3079,37.99,55,98,343783
1.9062,0.3275,37.68,55,98,343786
1.8866,0.3275,37.83,55,98,343790
1.8964,0.3128,37.9,55,98,343793
1.9062,0.3079,37.96,55,98,343796
1.9257,0.3079,37.93,55,98,343800
1.9795,0.3226,37.87,55,98,343803
1.9599,0.3079,37.9,55,98,343806
1.9941,0.3128,37.8,55,98,343811
1.9844,0.3079,37.96,55,98,343814
2.0088,0.3079,37.99,55,98,343817
2.0577,0.3372,37.8,55,98,343820
2.0381,0.3128,37.93,55,98,343824
2.0919,0.3177,37.74,55,98,343827
2.0821,0.3079,37.9,55,98,343830
2.1114,0.2981,37.99,55,98,343834
2.1652,0.3128,37.83,55,98,343837
2.1701,0.3079,37.99,55,98,343840
2.2336,0.3275,37.77,55,98,343844
2.2287,0.3079,37.9,55,98,343847
2.2581,0.3079,38.11,55,98,343851
2.3021,0.3128,37.83,55,98,343854
2.346,0.3079,37.96,55,98,343858
2.3851,0.3128,37.74,55,98,343861
2.3558,0.3177,37.99,55,98,343864
2.4194,0.2981,37.96,55,98,343868
2.4291,0.3079,37.19,55,98,343871
2.434,0.3079,37.99,55,98,343874
2.5269,0.3177,37.65,55,98,343878
2.4976,0.3128,37.83,55,98,343881
2.4878,0.3128,37.99,55,98,343884
2.4976,0.3079,37.87,55,98,343888
2.4878,0.3079,37.93,55,98,343891
2.5562,0.3324,37.71,55,98,343895
2.3167,0.3177,37.87,55,98,343900
2.2141,0.3079,37.93,55,98,343903
2.1408,0.3128,37.83,55,98,343906
2.0137,0.3079,37.96,55,98,343910
1.9159,0.3372,37.96,55,98,343913
1.8426,0.3079,37.87,55,98,343916
1.7351,0.3079,37.93,55,98,343920
1.6813,0.3079,37.87,55,98,343923
1.5787,0.3079,37.99,55,98,343926
1.5103,0.3079,37.96,55,98,343930
1.4614,0.3128,37.83,55,98,343933
1.3783,0.3079,38.02,55,98,343937
1.3539,0.3177,37.74,55,98,343941
1.305,0.3128,37.83,55,98,343944
1.2659,0.3079,38.05,55,98,343947
1.261,0.3177,37.87,55,98,343950
1.2268,0.2884,37.96,55,98,343954
1.2561,0.3079,37.68,55,98,343957
1.2561,0.3128,37.83,55,98,343960
1.2317,0.303,37.96,55,98,343964
1.2463,0.3079,37.83,55,98,343967
1.2512,0.3421,37.93,55,98,343970
1.3099,0.3275,37.68,55,98,343974
1.2952,0.3079,37.87,55,98,343977
1.3196,0.303,37.9,55,98,343981
1.3343,0.3128,37.93,55,98,343984
1.3734,0.3079,37.93,55,98,343988
1.4076,0.3226,37.8,55,98,343991
1.393,0.3128,37.9,55,98,343994
1.4027,0.3079,37.77,55,98,343998
1.4076,0.3079,37.93,55,98,344001
1.437,0.3079,37.96,55,98,344004
1.4663,0.3226,37.74,55,98,344008
1.4565,0.3079,37.93,55,98,344011
1.4809,0.3128,37.83,55,98,344014
1.5152,0.3421,37.96,55,98,344017
1.5054,0.3079,37.96,55,98,344022
1.5494,0.3128,37.83,55,98,344025
1.5445,0.303,37.93,55,98,344028
1.5787,0.3128,37.83,55,98,344032
1.5445,0.303,37.9,55,98,344035
1.5591,0.3324,37.93,55,98,344038
1.5787,0.3128,37.8,55,98,344042
1.5836,0.3079,37.83,55,98,344045
1.6227,0.3324,37.71,55,98,344048
1.6031,0.3079,37.99,55,98,344052
1.6178,0.3079,37.9,55,98,344055
1.6373,0.3128,37.87,55,98,344058
1.6276,0.3079,37.96,55,98,344061
1.6764,0.3177,37.68,55,98,344066
1.6618,0.3128,37.83,55,98,344069
1.6569,0.3079,37.96,55,98,344072
1.6667,0.3372,37.87,55,98,344076
1.6764,0.3079,37.96,55,98,344079
1.7204,0.3275,37.62,55,98,344082
1.6813,0.3128,37.83,55,98,344086
1.6862,0.303,37.87,55,98,344089
1.6911,0.3079,37.93,55,98,344092
1.6911,0.3079,37.99,55,98,344095
1.7498,0.3226,37.77,55,98,344099
1.7302,0.3079,37.9,55,98,344102
1.74,0.3079,37.83,55,98,344105
1.7204,0.3079,37.93,55,98,344110
1.7204,0.3079,37.96,55,98,344113
1.7449,0.3226,37.83,55,98,344116
1.7204,0.3079,37.93,55,98,344120
1.7449,0.3079,37.87,55,98,344123
1.7449,0.2884,37.99,55,98,344126
1.7253,0.3079,37.93,55,98,344129
1.7449,0.3226,37.8,55,98,344133
1.7155,0.3079,37.9,55,98,344136
1.7449,0.3128,37.8,55,98,344139
1.7155,0.303,37.99,55,98,344143
1.7204,0.303,37.87,55,98,344146
1.74,0.3128,37.83,55,98,344150
1.7253,0.3079,37.96,55,98,344154
1.7498,0.3128,37.74,55,98,344157
1.7253,0.3079,37.87,55,98,344160
1.7302,0.303,37.96,55,98,344163
1.7546,0.3177,37.83,55,98,344167
1.7644,0.2981,37.96,55,98,344170
1.7742,0.3177,37.65,55,98,344173
1.7253,0.2884,37.9,55,98,344177
1.7351,0.3079,37.96,55,98,344180
1.74,0.3079,37.9,55,98,344183
1.74,0.3079,37.93,55,98,344187
1.784,0.3226,37.68,55,98,344190
1.7449,0.3079,37.83,55,98,344194
1.7351,0.303,37.9,55,98,344198
1.7351,0.3079,37.93,55,98,344201
1.74,0.303,37.93,55,98,344204
1.784,0.3275,37.71,55,98,344207
1.7449,0.3079,37.93,55,98,344211
1.7498,0.3128,37.83,55,98,344214
1.7351,0.3079,37.99,55,98,344217
1.7351,0.303,38.05,55,98,344221
1.7693,0.3177,37.8,55,98,344224
1.7546,0.2981,37.9,55,98,344227
1.7693,0.3128,37.8,55,98,344231
1.7498,0.3079,38.02,55,98,344235
1.7644,0.2933,37.93,55,98,344238
1.7889,0.3128,37.87,55,98,344241
1.7791,0.3079,37.96,55,98,344245
1.8133,0.3177,37.83,55,98,344248
1.7889,0.3079,37.96,55,98,344251
1.7986,0.3226,37.93,55,98,344255
1.8182,0.3128,37.83,55,98,344258
1.8035,0.3079,37.93,55,98,344261
1.8328,0.3128,37.71,55,98,344265
1.8084,0.3079,37.83,55,98,344268
1.8035,0.303,37.99,55,98,344271
1.8182,0.3226,37.83,55,98,344274
1.7986,0.3079,37.93,55,98,344279
1.8426,0.3128,37.83,55,98,344282
1.8133,0.3079,37.87,55,98,344285
1.8035,0.303,37.96,55,98,344289
1.8133,0.3128,37.87,55,98,344292
1.7937,0.2981,37.96,55,98,344295
1.8524,0.3128,37.62,55,98,344299
1.8475,0.3128,37.8,55,98,344302
1.8231,0.2981,37.9,55,98,344305
1.8182,0.3079,37.96,55,98,344309
1.8475,0.303,37.96,55,98,344312
1.8671,0.3226,37.74,55,98,344315
1.8231,0.3079,37.9,55,98,344318
1.8231,0.303,37.83,55,98,344323
1.8133,0.3079,37.99,55,98,344326
1.8182,0.3226,37.93,55,98,344329
1.8573,0.3177,37.74,55,98,344333
1.828,0.3128,37.87,55,98,344336
1.8524,0.3128,37.8,55,98,344339
1.8328,0.3079,37.96,55,98,344343
1.8328,0.303,37.99,55,98,344346
1.8524,0.3128,37.87,55,98,344349
1.8328,0.3079,37.93,55,98,344352
1.8573,0.3079,37.83,55,98,344356
1.8182,0.3226,37.93,55,98,344359
1.8231,0.303,37.96,55,98,344363
1.8377,0.3128,38.21,55,98,344367
1.8231,0.3128,37.93,55,98,344370
1.8524,0.3128,37.77,55,98,344373
1.8182,0.3079,37.93,55,98,344377
1.8231,0.303,37.96,55,98,344380
1.8426,0.3177,37.87,55,98,344383
1.828,0.303,37.93,55,98,344387
1.8768,0.3177,37.68,55,98,344390
1.8475,0.3128,37.87,55,98,344393
1.8426,0.3079,37.96,55,98,344396
1.8426,0.3079,37.8,55,98,344400
1.8426,0.303,37.99,55,98,344403
1.8964,0.3226,37.62,55,98,344407
1.8524,0.3079,37.87,55,98,344411
1.8475,0.303,37.99,55,98,344414
1.8524,0.3079,37.93,55,98,344417
1.8524,0.303,37.93,55,98,344421
1.9062,0.3226,37.74,55,98,344424
1.8719,0.3128,37.87,55,98,344427
1.8622,0.303,37.87,55,98,344430
1.8426,0.3079,37.96,55,98,344434
1.8475,0.303,37.93,55,98,344437
1.8866,0.3177,37.93,55,98,344440
1.8768,0.3226,37.93,55,98,344444
1.9159,0.3128,37.8,55,98,344448
1.9257,0.3079,37.9,55,98,344451
1.9453,0.3226,37.96,55,98,344455
1.9892,0.3177,37.8,55,98,344458
1.9697,0.3079,37.9,55,98,344461
2.0039,0.3226,37.87,55,98,344464
1.9746,0.2981,37.9,55,98,344468
1.9892,0.303,37.93,55,98,344471
2.0186,0.3226,37.87,55,98,344474
2.0137,0.2981,37.93,55,98,344478
2.043,0.3128,37.74,55,98,344481
1.9892,0.3079,37.9,55,98,344484
1.9795,0.3324,37.93,55,98,344488
1.9746,0.3177,37.71,55,98,344492
1.9355,0.3128,37.93,55,98,344495
1.9844,0.3226,37.68,55,98,344498
1.9159,0.303,37.87,55,98,344502
1.9208,0.3079,37.93,55,98,344505
1.955,0.3128,37.93,55,98,344508
1.7937,0.3079,37.93,55,98,344513
1.7644,0.303,37.96,55,98,344516
1.7791,0.3128,37.77,55,98,344520
1.7449,0.3079,37.96,55,98,344523
1.7595,0.3421,37.8,55,98,344526
1.7449,0.303,37.9,55,98,344530
1.7498,0.2981,37.93,55,98,344534
1.784,0.3128,37.8,55,98,344537
1.7644,0.3079,37.93,55,98,344541
1.7937,0.3128,37.8,55,98,344544
1.7644,0.3079,37.93,55,98,344547
1.784,0.303,37.96,55,98,344550
1.7986,0.3128,37.83,55,98,344554
1.7986,0.3079,37.93,55,98,344557
1.828,0.3128,37.9,55,98,344560
1.7986,0.2884,37.96,55,98,344564
1.8182,0.303,37.96,55,98,344567
1.8426,0.3079,37.83,55,98,344570
1.828,0.3079,37.96,55,98,344574
1.8622,0.3128,37.71,55,98,344578
1.8426,0.347,37.87,55,98,344581
1.8768,0.3079,37.96,55,98,344584
1.8671,0.3128,37.9,55,98,344588
1.8475,0.3079,37.99,55,98,344591
1.8817,0.3177,37.65,55,98,344594
1.7889,0.303,37.9,55,98,344598
1.7302,0.3079,37.93,55,98,344601
1.696,0.3177,37.9,55,98,344604
1.696,0.303,37.96,55,98,344608
1.8964,0.3226,37.68,55,98,344611
2.1896,0.3275,37.83,55,98,344614
2.7224,0.303,37.9,55,98,344617
3.4506,0.3079,37.93,55,98,344622
4.1105,0.303,37.93,55,98,344625
4.6139,0.3079,37.77,55,98,344628
4.7703,0.2981,37.9,55,98,344632
4.8485,0.3079,37.83,55,98,344635
4.6481,0.3421,37.93,55,98,344638
4.1105,0.3079,37.96,55,98,344642
3.3871,0.3177,37.71,55,98,344645
2.5709,0.3079,37.93,55,98,344648
1.999,0.3128,37.8,55,98,344651
1.5689,0.3079,37.93,55,98,344655
1.3343,0.303,37.99,55,98,344658
1.2268,0.3177,37.83,55,98,344662
1.1632,0.3079,37.93,55,98,344666
1.1681,0.3079,37.83,55,98,344669
1.1437,0.303,37.99,55,98,344672
1.173,0.2981,37.96,55,98,344676
1.1681,0.3128,37.83,55,98,344679
1.173,0.3128,37.99,55,98,344682
1.2023,0.3128,37.77,55,98,344685
1.1877,0.3079,37.93,55,98,344689
1.2268,0.303,37.87,55,98,344692
1.2561,0.3177,37.83,55,98,344695
1.2659,0.3079,37.87,55,98,344699
1.3196,0.3324,37.68,55,98,344702
1.3196,0.3128,37.87,55,98,344706
1.349,0.303,37.96,55,98,344710
1.3734,0.303,37.87,55,98,344713
1.393,0.303,37.93,55,98,344716
1.4565,0.3177,37.65,55,98,344719
1.4467,0.3128,37.83,55,98,344723
1.4663,0.2884,37.93,55,98,344726
1.5005,0.3128,37.9,55,98,344729
1.5249,0.3128,37.99,55,98,344733
1.5934,0.3275,37.74,55,98,344736
1.5836,0.3128,37.77,55,98,344739
1.5934,0.3177,37.83,55,98,344743
1.6031,0.3079,37.99,55,98,344747
1.6227,0.303,37.96,55,98,344750
1.6764,0.3177,37.87,55,98,344754
1.6667,0.3079,37.77,55,98,344757
1.7009,0.3079,37.8,55,98,344760
1.6911,0.3079,37.93,55,98,344763
1.7107,0.303,37.71,55,98,344767
1.7546,0.3177,37.74,55,98,344770
1.74,0.3079,37.93,55,98,344773
1.784,0.3128,37.9,55,98,344777
1.7644,0.3128,37.9,55,98,344780
1.8182,0.3079,37.96,55,98,344783
1.8182,0.3177,37.87,55,98,344787
1.8524,0.3079,37.93,55,98,344791
1.8671,0.3128,37.77,55,98,344794
1.8524,0.3128,37.9,55,98,344797
1.8719,0.303,37.96,55,98,344801
1.9062,0.3079,37.83,55,98,344804
1.9013,0.3079,37.99,55,98,344807
1.955,0.3128,37.68,55,98,344811
1.9306,0.2981,37.99,55,98,344814
1.955,0.303,37.99,55,98,344817
1.9892,0.3177,37.9,55,98,344821
1.9844,0.303,37.96,55,98,344824
2.0577,0.3177,37.65,55,98,344827
2.043,0.3128,37.87,55,98,344830
2.0626,0.2981,37.93,55,98,344835
2.0723,0.3128,37.68,55,98,344838
2.087,0.303,37.96,55,98,344841
2.1701,0.3324,37.71,55,98,344845
2.1505,0.3079,37.9,55,98,344848
2.175,0.303,37.9,55,98,344851
2.1994,0.3079,37.9,55,98,344855
2.2239,0.2981,37.93,55,98,344858
2.3314,0.3177,37.77,55,98,344861
2.2972,0.3079,37.77,55,98,344864
2.3363,0.3079,37.83,55,98,344868
2.3363,0.2884,37.93,55,98,344871
2.3754,0.303,37.93,55,98,344875
2.4438,0.3128,37.87,55,98,344879
2.4291,0.3079,37.96,55,98,344882
2.4829,0.3079,37.8,55,98,344885
2.4682,0.3079,37.93,55,98,344889
2.4878,0.303,37.96,55,98,344892
2.5367,0.3177,37.83,55,98,344895
2.4976,0.3079,37.93,55,98,344898
2.5318,0.3079,37.8,55,98,344902
2.478,0.303,37.9,55,98,344905
2.4633,0.303,37.96,55,98,344908
2.4291,0.3128,37.77,55,98,344912
2.3509,0.2981,37.96,55,98,344915
2.3167,0.3128,37.71,55,98,344919
2.1994,0.3079,37.9,55,98,344923
2.1163,0.2981,37.96,55,98,344926
2.043,0.3177,37.8,55,98,344929
1.9208,0.3079,37.96,55,98,344932
1.8573,0.3128,37.68,55,98,344936
1.7107,0.303,37.9,55,98,344939
1.6227,0.303,37.96,55,98,344942
1.5396,0.3079,37.9,55,98,344946
1.4516,0.303,37.96,55,98,344949
1.4223,0.3177,37.71,55,98,344952
1.3343,0.3128,37.87,55,98,344956
1.2757,0.303,37.93,55,98,344960
1.2414,0.3177,37.93,55,98,344963
1.217,0.303,37.93,55,98,344966
1.2317,0.3226,37.74,55,98,344970
1.1975,0.3079,37.87,55,98,344973
1.1877,0.2884,37.83,55,98,344976
1.1779,0.3079,37.93,55,98,344980
1.1779,0.303,37.87,55,98,344983
1.2072,0.3226,37.8,55,98,344986
1.1975,0.3079,37.93,55,98,344990
1.2317,0.3079,37.83,55,98,344993
1.2219,0.3177,37.9,55,98,344996
1.2268,0.303,37.96,55,98,344999
1.261,0.3128,37.87,55,98,345004
1.2659,0.3421,37.96,55,98,345007
1.305,0.3128,37.83,55,98,345010
1.2952,0.3079,37.96,55,98,345014
1.3343,0.303,37.96,55,98,345017
1.3539,0.3177,37.8,55,98,345020
1.349,0.3421,37.93,55,98,345024
1.3832,0.3128,37.77,55,98,345027
1.393,0.3128,37.83,55,98,345030
1.4076,0.3079,37.93,55,98,345033
1.437,0.3177,37.83,55,98,345037
1.437,0.3079,37.96,55,98,345040
1.4858,0.3177,37.68,55,98,345043
1.4761,0.3079,37.83,55,98,345048
1.4956,0.303,37.96,55,98,345051
1.5347,0.3226,37.9,55,98,345054
1.5249,0.3079,37.96,55,98,345058
1.5787,0.3177,37.74,55,98,345061
1.5494,0.3128,37.8,55,98,345064
1.5689,0.2981,37.93,55,98,345068
1.5885,0.3079,37.9,55,98,345071
1.5934,0.3079,37.93,55,98,345074
1.652,0.3275,37.71,55,98,345077
1.6325,0.3177,37.83,55,98,345081
1.6373,0.303,37.9,55,98,345084
1.6325,0.303,37.93,55,98,345088
1.6471,0.3079,37.96,55,98,345092
1.6862,0.3079,37.77,55,98,345095
1.6569,0.303,37.9,55,98,345098
1.6862,0.3128,37.8,55,98,345102
1.6569,0.3079,37.93,55,98,345105
1.6667,0.303,37.96,55,98,345108
1.6911,0.3128,37.87,55,98,345111
1.6813,0.3079,37.93,55,98,345115
1.7009,0.3128,37.43,55,98,345118
1.6667,0.303,37.96,55,98,345121
1.652,0.3079,37.96,55,98,345126
1.6422,0.2884,37.99,55,98,345129
1.6618,0.3079,37.34,55,98,345134
1.6471,0.303,37.93,55,98,345137
1.7009,0.3177,37.68,55,98,345140
1.6764,0.3079,37.96,55,98,345143
1.6667,0.303,38.11,55,98,345147
1.6813,0.3128,37.9,55,98,345150
1.6764,0.3079,38.05,55,98,345153
1.7302,0.3226,37.65,55,98,345157
1.696,0.3128,37.8,55,98,345160
1.6911,0.303,38.08,55,98,345163
1.6911,0.3079,37.93,55,98,345167
1.6813,0.3079,37.99,55,98,345170
1.7302,0.3226,37.77,55,98,345174
1.7058,0.3128,37.87,55,98,345178
1.7009,0.3079,37.83,55,98,345181
1.6862,0.3079,38.05,55,98,345184
1.6862,0.3128,38.05,55,98,345187
1.7155,0.3177,37.9,55,98,345191
1.6813,0.3079,37.93,55,98,345194
1.696,0.3079,37.83,55,98,345197
1.6813,0.3079,37.96,55,98,345201
1.6862,0.303,37.99,55,98,345204
1.7107,0.3177,37.8,55,98,345207
1.6862,0.3079,37.93,55,98,345211
1.7155,0.3128,37.93,55,98,345214
1.7155,0.303,37.9,55,98,345218
1.6862,0.3079,37.96,55,98,345221
1.696,0.3128,37.87,55,98,345225
1.6813,0.3079,37.93,55,98,345228
1.7107,0.3128,37.77,55,98,345231
1.6764,0.3079,37.87,55,98,345235
1.6911,0.3079,37.96,55,98,345238
1.7058,0.3177,37.87,55,98,345241
1.6813,0.3079,37.99,55,98,345245
1.7107,0.3226,37.68,55,98,345248
1.6716,0.303,37.87,55,98,345251
1.6911,0.303,37.96,55,98,345255
1.6911,0.3079,37.93,55,98,345259
1.7204,0.3079,37.93,55,98,345262
1.74,0.3226,37.68,55,98,345265
1.7009,0.3079,37.87,55,98,345269
1.6911,0.3079,37.9,55,98,345272
1.6911,0.3128,37.93,55,98,345275
1.6862,0.303,37.96,55,98,345279
1.7302,0.3177,37.71,55,98,345282
1.696,0.3079,38.15,55,98,345285
1.696,0.3079,37.87,55,98,345289
1.7155,0.2884,37.96,55,98,345292
1.6862,0.3079,37.96,55,98,345295
1.7155,0.3519,37.87,55,98,345298
1.7009,0.3128,37.93,55,98,345303
1.7155,0.3079,37.99,55,98,345306
1.6813,0.3177,37.99,55,98,345309
1.6862,0.303,37.93,55,98,345313
1.696,0.3079,37.87,55,98,345316
1.7009,0.3079,37.96,55,98,345319
1.7107,0.3128,37.8,55,98,345323
1.6764,0.3079,37.93,55,98,345326
1.7009,0.303,37.99,55,98,345329
1.7302,0.3128,37.83,55,98,345332
1.6764,0.3079,38.02,55,98,345336
1.7058,0.3177,37.71,55,98,345339
1.6911,0.3128,37.83,55,98,345342
1.6813,0.3079,37.99,55,98,345347
1.7009,0.3128,37.87,55,98,345350
1.6813,0.303,37.96,55,98,345353
1.7253,0.3177,37.68,55,98,345357
1.6911,0.3079,37.87,55,98,345360
1.6813,0.303,37.96,55,98,345363
1.6813,0.3079,37.9,55,98,345367
1.6667,0.3128,37.93,55,98,345370
1.7155,0.3177,37.65,55,98,345373
1.6813,0.3324,37.87,55,98,345376
1.7058,0.2884,37.93,55,98,345380
1.6716,0.3079,37.9,55,98,345383
1.6813,0.2884,37.99,55,98,345387
1.7107,0.3275,37.77,55,98,345391
1.6764,0.3079,37.93,55,98,345394
1.6764,0.3128,37.83,55,98,345397
1.6618,0.3079,37.96,55,98,345401
1.6667,0.303,37.96,55,98,345404
1.7009,0.3177,37.77,55,98,345407
1.6618,0.3079,37.9,55,98,345411
1.6764,0.3128,37.87,55,98,345414
1.652,0.3079,37.96,55,98,345417
1.652,0.303,38.08,55,98,345420
1.6716,0.3275,37.83,55,98,345424
1.652,0.3079,37.93,55,98,345427
1.6764,0.3128,37.83,55,98,345431
1.6422,0.303,37.96,55,98,345435
1.6422,0.3079,37.96,55,98,345438
1.6569,0.3128,37.83,55,98,345441
1.6422,0.3079,37.96,55,98,345444
1.6618,0.3324,37.8,55,98,345448
1.6276,0.3079,37.93,55,98,345451
1.6325,0.303,37.93,55,98,345454
1.6422,0.3226,37.9,55,98,345458
1.6227,0.3079,37.8,55,98,345461
1.6618,0.3128,37.74,55,98,345464
1.6373,0.3128,37.9,55,98,345468
1.6129,0.303,38.02,55,98,345472
1.6129,0.3128,37.87,55,98,345475
1.6031,0.3079,37.96,55,98,345479
1.6373,0.3226,37.74,55,98,345482
1.6031,0.3128,37.87,55,98,345485
1.5934,0.303,37.93,55,98,345488
1.5934,0.3079,37.9,55,98,345492
1.5885,0.3128,37.99,55,98,345495
1.6422,0.3275,37.74,55,98,345498
1.6031,0.3128,37.87,55,98,345502
1.5934,0.3079,37.83,55,98,345505
1.5738,0.3079,37.96,55,98,345508
1.5738,0.303,37.96,55,98,345512
1.6031,0.3177,37.83,55,98,345516
1.5738,0.3128,37.8,55,98,345519
1.5885,0.3079,37.8,55,98,345522
1.564,0.3079,37.99,55,98,345526
1.564,0.3079,37.99,55,98,345529
1.5836,0.3177,37.87,55,98,345532
1.5591,0.3079,37.96,55,98,345536
1.5836,0.3128,37.9,55,98,345539
1.5494,0.2981,37.9,55,98,345542
1.5543,0.3079,37.93,55,98,345546
1.5689,0.3226,37.9,55,98,345549
1.5689,0.3079,37.93,55,98,345552
1.6129,0.3128,37.77,55,98,345556
1.6227,0.3128,37.9,55,98,345560
1.6276,0.303,37.96,55,98,345563
1.6569,0.3226,37.93,55,98,345566
1.6422,0.303,37.99,55,98,345570
1.6764,0.3128,37.68,55,98,345573
1.6373,0.3079,37.83,55,98,345576
1.6471,0.3079,37.93,55,98,345580
1.6667,0.3128,37.83,55,98,345583
1.6667,0.2884,37.93,55,98,345586
1.7058,0.3226,37.71,55,98,345590
1.652,0.3079,37.9,55,98,345593
1.6276,0.303,37.9,55,98,345596
1.6031,0.3079,38.02,55,98,345601
1.5836,0.3324,37.93,55,98,345604
1.6325,0.3177,37.74,55,98,345607
1.5591,0.3079,37.87,55,98,345610
1.5543,0.3128,37.9,55,98,345614
1.5396,0.3079,37.93,55,98,345617
1.5298,0.3079,37.71,55,98,345620
1.5298,0.3177,37.8,55,98,345624
1.4858,0.3079,37.93,55,98,345627
1.4663,0.3128,37.87,55,98,345630
1.4174,0.303,37.96,55,98,345634
1.4076,0.303,37.96,55,98,345637
1.4027,0.3079,37.83,55,98,345640
1.3881,0.303,37.96,55,98,345644
1.4076,0.3128,37.8,55,98,345648
1.3734,0.3079,37.93,55,98,345651
1.3832,0.303,37.96,55,98,345654
1.4027,0.3177,37.87,55,98,345658
1.3783,0.3079,37.93,55,98,345661
1.4272,0.3128,37.74,55,98,345664
1.3832,0.3079,37.83,55,98,345668
1.3832,0.303,38.02,55,98,345671
1.4321,0.3128,37.87,55,98,345674
1.3832,0.3079,37.96,55,98,345677
1.4174,0.3177,37.71,55,98,345681
1.4125,0.3079,37.87,55,98,345684
1.393,0.303,37.99,55,98,345688
1.393,0.3079,37.93,55,98,345692
1.3832,0.3079,37.96,55,98,345695
1.4272,0.3226,37.65,55,98,345698
1.3978,0.3079,37.87,55,98,345702
1.4027,0.2933,37.93,55,98,345705
1.3978,0.3079,37.93,55,98,345708
1.393,0.3079,37.96,55,98,345711
1.4125,0.3226,37.77,55,98,345715
1.3343,0.3177,37.93,55,98,345718
1.2854,0.303,37.87,55,98,345721
1.2366,0.3128,37.93,55,98,345725
1.2512,0.3079,37.9,55,98,345729
1.4272,0.3226,37.77,55,98,345732
4.4184,0.3226,37.87,55,98,345737
4.6725,0.2884,37.96,55,98,345740
4.8094,0.3079,37.99,55,98,345744
4.4282,0.3079,37.87,55,98,345747
3.7781,0.3079,37.99,55,98,345750
2.9619,0.3177,37.83,55,98,345754
2.1359,0.3079,37.93,55,98,345757
1.5885,0.3128,37.71,55,98,345760
1.1388,0.2981,37.83,55,98,345763
0.914,0.3226,37.96,55,98,345767
0.7869,0.3128,37.9,55,98,345771
0.7331,0.3079,37.96,55,98,345774
0.7283,0.3177,37.65,55,98,345778
0.7038,0.3128,37.93,55,98,345781
0.7136,0.303,37.93,55,98,345784
0.7087,0.3226,37.93,55,98,345788
0.7136,0.3079,37.96,55,98,345791
0.7429,0.3275,37.71,55,98,345794
0.7331,0.3177,37.83,55,98,345797
0.7527,0.2981,37.9,55,98,345801
0.7869,0.3128,37.93,55,98,345804
0.8065,0.303,37.99,55,98,345807
0.8553,0.3079,37.77,55,98,345811
0.8602,0.347,37.93,55,98,345815
0.8847,0.3128,37.87,55,98,345818
0.8993,0.3128,37.93,55,98,345821
0.9335,0.3079,38.11,55,98,345825
0.9726,0.3177,37.87,55,98,345828
1.002,0.2981,37.93,55,98,345831
1.0215,0.3128,37.8,55,98,345835
1.0215,0.3079,37.34,55,98,345838
1.0508,0.3079,38.15,55,98,345841
1.0899,0.3519,37.8,55,98,345845
1.1046,0.3079,37.93,55,98,345848
1.1339,0.3177,37.83,55,98,345851
1.1339,0.303,37.9,55,98,345854
1.1535,0.3128,37.93,55,98,345859
1.1828,0.3128,37.83,55,98,345862
1.1975,0.3079,37.9,55,98,345865
1.2317,0.3079,37.8,55,98,345869
1.2121,0.3079,37.93,55,98,345872
1.2463,0.3079,37.96,55,98,345875
1.2708,0.3275,37.8,55,98,345879
1.2805,0.2884,37.96,55,98,345882
1.3148,0.3128,37.71,55,98,345885
1.3099,0.3079,37.99,55,98,345888
1.3343,0.3079,37.96,55,98,345892
1.3441,0.3079,37.68,55,98,345895
1.3441,0.303,37.96,55,98,345899
1.393,0.3177,37.65,55,98,345903
1.3636,0.3128,37.77,55,98,345906
1.3881,0.303,37.9,55,98,345909
1.4027,0.3079,37.93,55,98,345913
1.4076,0.3079,37.96,55,98,345916
1.4712,0.3372,37.74,55,98,345919
1.4516,0.3128,37.93,55,98,345923
1.5005,0.3079,37.87,55,98,345926
1.4809,0.3128,37.96,55,98,345929
1.5005,0.3079,37.96,55,98,345932
1.5591,0.3177,37.83,55,98,345936
1.5494,0.3128,37.9,55,98,345939
1.5787,0.3128,37.83,55,98,345943
1.5885,0.3079,37.93,55,98,345947
1.6178,0.3079,37.96,55,98,345950
1.6618,0.3177,37.96,55,98,345953
1.6716,0.3128,37.93,55,98,345957
1.7253,0.3177,37.87,55,98,345960
1.7302,0.3079,37.96,55,98,345963
1.7742,0.3079,37.93,55,98,345966
1.8182,0.3177,37.83,55,98,345970
1.8377,0.2981,37.96,55,98,345973
1.8817,0.3128,37.77,55,98,345976
1.8866,0.3079,37.83,55,98,345980
1.9159,0.3079,37.93,55,98,345984
1.9697,0.3177,37.93,55,98,345987
1.9795,0.3079,37.99,55,98,345991
2.0723,0.3128,37.68,55,98,345994
2.0283,0.3128,37.9,55,98,345997
2.0332,0.3079,37.93,55,98,346000
2.0626,0.3177,37.9,55,98,346004
2.043,0.3079,37.93,55,98,346007
2.1065,0.3177,37.68,55,98,346010
2.0332,0.3079,37.83,55,98,346014
2.0088,0.3226,37.99,55,98,346017
1.9795,0.3128,37.9,55,98,346020
1.9306,0.3079,37.96,55,98,346024
1.9404,0.3275,37.74,55,98,346028
1.8328,0.3128,37.87,55,98,346031
1.74,0.303,37.9,55,98,346034
1.652,0.3079,37.93,55,98,346038
1.564,0.3079,37.93,55,98,346041
1.5054,0.3177,37.74,55,98,346044
1.3734,0.3079,38.08,55,98,346048
1.2854,0.3079,37.83,55,98,346051
1.1877,0.303,37.96,55,98,346054
1.129,0.3079,37.96,55,98,346058
1.0508,0.3177,37.87,55,98,346061
0.9824,0.3079,37.96,55,98,346064
0.9433,0.3128,37.8,55,98,346067
0.8847,0.3128,37.96,55,98,346072
0.8504,0.3079,37.96,55,98,346075
0.8358,0.3079,37.93,55,98,346078
0.8113,0.3079,37.9,55,98,346082
0.8211,0.3177,37.87,55,98,346085
0.8065,0.3079,37.96,55,98,346088
0.8211,0.3079,37.96,55,98,346091
0.8162,0.3079,37.83,55,98,346095
0.826,0.3421,37.93,55,98,346098
0.8553,0.3128,37.77,55,98,346101
0.8602,0.3128,37.9,55,98,346105
0.8847,0.303,38.05,55,98,346108
0.9091,0.3177,37.83,55,98,346112
0.9286,0.2884,37.99,55,98,346116
0.9531,0.3079,37.8,55,98,346119
0.958,0.3079,37.9,55,98,346122
0.9824,0.3421,37.96,55,98,346125
1.0117,0.3177,37.87,55,98,346129
1.0166,0.3079,38.05,55,98,346132
1.0606,0.3226,37.62,55,98,346135
1.0459,0.3079,37.87,55,98,346139
1.0704,0.3079,37.99,55,98,346142
1.0997,0.3128,37.93,55,98,346145
1.1095,0.3079,37.96,55,98,346148
1.1681,0.3275,37.65,55,98,346152
1.1584,0.3128,37.83,55,98,346156
1.1681,0.303,37.9,55,98,346159
1.1779,0.2981,37.93,55,98,346163
1.1975,0.3079,37.96,55,98,346166
1.2463,0.3226,37.19,55,98,346169
1.2268,0.3226,37.93,55,98,346173
1.2512,0.3128,37.83,55,98,346176
1.2463,0.3177,37.99,55,98,346179
1.3001,0.2884,37.96,55,98,346182
1.3148,0.3177,37.8,55,98,346186
1.3196,0.3128,37.93,55,98,346189
1.3685,0.3128,37.8,55,98,346192
1.3343,0.3079,37.96,55,98,346196
1.3539,0.303,37.96,55,98,346200
1.3832,0.3128,37.87,55,98,346203
1.3832,0.3079,37.96,55,98,346207
1.4223,0.3128,37.8,55,98,346210
1.4076,0.3079,37.96,55,98,346213
1.4174,0.2884,37.96,55,98,346216
1.4418,0.3079,37.83,55,98,346220
1.437,0.3128,37.93,55,98,346223
1.4663,0.3128,37.77,55,98,346226
1.4565,0.3128,37.83,55,98,346230
1.4907,0.2884,37.96,55,98,346233
1.4761,0.3177,37.9,55,98,346236
1.4663,0.3128,37.96,55,98,346241
1.5103,0.3177,37.68,55,98,346244
1.4907,0.3226,37.87,55,98,346247
1.4907,0.3079,37.96,55,98,346251
1.5005,0.3128,37.9,55,98,346254
1.4907,0.3079,37.96,55,98,346257
1.5396,0.3226,37.65,55,98,346260
1.5005,0.3128,37.83,55,98,346264
1.5152,0.303,37.22,55,98,346267
1.5152,0.3128,37.93,55,98,346270
1.52,0.3079,37.99,55,98,346274
1.564,0.3372,37.8,55,98,346277
1.5445,0.3128,37.9,55,98,346280
1.5494,0.3128,37.87,55,98,346285
1.5494,0.3177,37.93,55,98,346288
1.5591,0.3079,37.96,55,98,346291
1.5885,0.3177,38.05,55,98,346294
1.5982,0.3128,37.93,55,98,346298
1.5787,0.3128,37.8,55,98,346301
1.564,0.3079,38.02,55,98,346304
1.5738,0.3079,37.34,55,98,346308
1.6325,0.3177,37.83,55,98,346311
1.5836,0.3128,37.96,55,98,346314
1.6129,0.3177,37.83,55,98,346318
1.5836,0.3128,37.93,55,98,346321
1.5982,0.3079,37.99,55,98,346324
1.6227,0.3128,37.83,55,98,346329
1.6031,0.3128,37.93,55,98,346332
1.6325,0.3128,37.8,55,98,346335
1.6129,0.3079,37.96,55,98,346338
1.6227,0.3079,37.96,55,98,346342
1.6325,0.3568,37.87,55,98,346345
1.6618,0.3128,37.93,55,98,346349
1.6422,0.3079,37.96,55,98,346352
1.6862,0.347,37.77,55,98,346355
1.6471,0.3128,37.87,55,98,346359
1.6569,0.3079,37.87,55,98,346362
1.652,0.3079,37.93,55,98,346365
1.6569,0.2981,37.96,55,98,346370
1.696,0.3177,37.65,55,98,346373
1.6862,0.3177,37.9,55,98,346376
1.7058,0.3128,37.83,55,98,346380
1.6862,0.3079,37.46,55,98,346383
1.7204,0.2981,37.96,55,98,346386
1.7204,0.3128,37.87,55,98,346389
1.7155,0.3079,38.15,55,98,346393
1.7449,0.303,37.83,55,98,346396
1.7155,0.3079,37.8,55,98,346399
1.7155,0.3079,37.87,55,98,346403
1.7351,0.3226,37.83,55,98,346406
1.7155,0.3079,37.77,55,98,346409
1.7498,0.3128,37.74,55,98,346414
1.7302,0.3128,37.83,55,98,346417
1.7351,0.3079,37.96,55,98,346420
1.7449,0.3226,37.83,55,98,346423
1.7302,0.3079,37.99,55,98,346427
1.7791,0.3079,37.74,55,98,346430
1.7498,0.3177,37.9,55,98,346433
1.7498,0.3079,37.96,55,98,346437
1.7693,0.3079,37.9,55,98,346440
1.7546,0.3128,37.96,55,98,346443
1.8035,0.3226,37.65,55,98,346447
1.7693,0.3079,37.83,55,98,346450
1.7693,0.3177,37.93,55,98,346454
1.7693,0.3128,37.93,55,98,346457
1.7546,0.3079,38.05,55,98,346461
1.8231,0.3275,37.74,55,98,346464
1.784,0.3128,37.93,55,98,346467
1.784,0.3079,37.87,55,98,346471
1.7742,0.3177,37.93,55,98,346474
1.7742,0.3079,37.96,55,98,346477
1.8182,0.3177,37.93,55,98,346481
1.7889,0.3128,37.93,55,98,346484
1.8035,0.3128,37.9,55,98,346487
1.784,0.3079,38.02,55,98,346491
1.7937,0.3079,37.96,55,98,346494
1.8475,0.3177,37.8,55,98,346498
1.8035,0.3128,37.99,55,98,346501
1.828,0.3177,37.8,55,98,346505
1.7937,0.3128,37.96,55,98,346508
1.8035,0.3079,37.96,55,98,346511
1.8084,0.3079,37.8,55,98,346515
1.7986,0.3079,37.93,55,98,346518
1.828,0.3128,37.8,55,98,346521
1.7986,0.3079,37.96,55,98,346524
1.8133,0.3079,38.18,55,98,346528
1.8328,0.3226,37.83,55,98,346531
1.8084,0.3079,38.05,55,98,346534
1.8377,0.3128,37.68,55,98,346539
1.8231,0.3226,37.83,55,98,346542
1.7986,0.3079,37.96,55,98,346545
1.8182,0.3177,37.9,55,98,346549
1.7986,0.3079,37.96,55,98,346552
1.8426,0.3079,37.77,55,98,346555
1.7986,0.3128,37.87,55,98,346559
1.7937,0.3079,38.02,55,98,346562
1.7937,0.3128,37.77,55,98,346565
1.784,0.303,37.96,55,98,346568
1.8328,0.3324,37.71,55,98,346572
1.7986,0.3372,37.87,55,98,346575
1.7937,0.2981,37.9,55,98,346578
1.7742,0.3128,37.22,55,98,346583
1.7791,0.3079,37.96,55,98,346586
1.8084,0.3275,37.9,55,98,346589
1.784,0.3128,37.96,55,98,346593
1.7986,0.3079,37.83,55,98,346596
1.7742,0.3128,38.05,55,98,346599
1.7937,0.3079,37.87,55,98,346602
1.828,0.3226,37.77,55,98,346606
1.8035,0.3128,37.93,55,98,346609
1.8426,0.3177,37.83,55,98,346612
1.8377,0.3128,37.96,55,98,346616
1.8182,0.3079,37.96,55,98,346619
1.8377,0.3079,37.87,55,98,346622
1.8182,0.3128,37.96,55,98,346627
1.8426,0.3079,37.77,55,98,346630
1.8084,0.3079,37.96,55,98,346633
1.8231,0.3177,37.96,55,98,346637
1.8377,0.3177,37.99,55,98,346640
1.8231,0.303,37.96,55,98,346643
1.8915,0.3177,37.71,55,98,346646
1.8328,0.3079,37.9,55,98,346650
1.8817,0.3128,37.96,55,98,346653
1.8524,0.3177,37.93,55,98,346656
1.8377,0.3079,37.96,55,98,346660
1.8817,0.3226,37.65,55,98,346663
1.8475,0.3079,37.96,55,98,346667
1.8377,0.3079,38.05,55,98,346671
1.8768,0.3128,37.93,55,98,346674
1.8524,0.3079,38.05,55,98,346677
1.9257,0.3324,37.68,55,98,346680
1.8964,0.3177,37.9,55,98,346684
1.9062,0.3079,37.87,55,98,346687
1.911,0.3177,37.93,55,98,346690
1.9208,0.2981,37.96,55,98,346694
1.9697,0.3226,37.8,55,98,346697
1.9404,0.3079,37.99,55,98,346700
1.9501,0.3128,37.83,55,98,346704
1.9404,0.3128,37.96,55,98,346707
1.9648,0.3079,37.96,55,98,346711
1.999,0.3128,37.87,55,98,346714
1.9648,0.3128,37.96,55,98,346718
1.9746,0.3079,37.83,55,98,346721
1.9159,0.3128,37.96,55,98,346724
1.9013,0.3079,37.25,55,98,346728
1.9159,0.3226,37.83,55,98,346731
1.8817,0.3079,37.96,55,98,346734
1.9013,0.3128,37.77,55,98,346738
1.8817,0.3128,37.87,55,98,346741
1.8475,0.3079,37.96,55,98,346744
1.8426,0.3177,37.96,55,98,346748
1.8084,0.3128,37.96,55,98,346752
1.8035,0.3177,37.71,55,98,346755
1.74,0.3128,37.9,55,98,346758
1.7155,0.3128,37.93,55,98,346762
1.7155,0.3177,37.87,55,98,346765
1.6813,0.3079,37.96,55,98,346768
1.7204,0.3226,37.65,55,98,346772
1.6764,0.3128,37.87,55,98,346775
1.6667,0.3128,37.96,55,98,346778
1.6618,0.3128,37.99,55,98,346782
1.6862,0.2981,37.96,55,98,346785
1.7058,0.3275,37.74,55,98,346788
1.6716,0.3177,37.9,55,98,346792
1.6716,0.3128,37.9,55,98,346796
1.6667,0.3128,37.93,55,98,346799
1.6667,0.3128,37.96,55,98,346802
1.696,0.3226,37.77,55,98,346806
1.6716,0.3372,37.9,55,98,346809
1.6862,0.3128,37.83,55,98,346812
1.6618,0.3128,38.02,55,98,346816
1.652,0.3079,37.99,55,98,346819
1.6813,0.3177,37.9,55,98,346822
1.6618,0.3079,37.93,55,98,346826
1.6911,0.3177,37.77,55,98,346829
1.6667,0.3128,37.96,55,98,346832
1.6764,0.3079,38.08,55,98,346835
1.6813,0.3128,37.87,55,98,346840
1.6471,0.3128,37.93,55,98,346843
1.6325,0.3128,37.83,55,98,346846
1.5591,0.3128,37.96,55,98,346850
1.5005,0.3079,37.96,55,98,346853
1.5152,0.3177,37.9,55,98,346856
1.6031,0.3128,37.96,55,98,346860
1.9257,0.3177,37.71,55,98,346863
2.3851,0.3226,37.9,55,98,346866
3.0694,0.3079,37.96,55,98,346870
3.8465,0.3177,37.99,55,98,346873
4.3402,0.3177,37.96,55,98,346876
4.7605,0.3226,37.65,55,98,346880
4.7947,0.3275,37.87,55,98,346884
4.6481,0.3226,37.93,55,98,346887
4.1642,0.3128,37.93,55,98,346890
3.3578,0.3079,37.99,55,98,346894
2.6002,0.3372,37.74,55,98,346897
1.8524,0.3079,37.87,55,98,346900
1.3539,0.3128,37.22,55,98,346904
1.0411,0.3177,37.93,55,98,346907
0.87,0.3079,37.96,55,98,346910
0.7771,0.3226,37.83,55,98,346913
0.7283,0.3128,37.96,55,98,346917
0.6989,0.3177,37.83,55,98,346920
0.6647,0.3079,37.96,55,98,346924
0.6452,0.3079,37.99,55,98,346928
0.6549,0.3177,37.77,55,98,346931
0.6158,0.3079,38.11,55,98,346934
0.6158,0.3421,37.8,55,98,346938
0.6012,0.3128,37.96,55,98,346941
0.5865,0.3128,37.96,55,98,346944
0.5816,0.3128,37.19,55,98,346947
0.567,0.3128,37.93,55,98,346951
0.5767,0.3128,37.83,55,98,346954
0.5474,0.3177,37.71,55,98,346957
0.4594,0.3128,37.9,55,98,346961
0.4545,0.3079,37.96,55,98,346964
0.4399,0.3128,37.93,55,98,346969
0.4252,0.303,37.96,55,98,346972
0.4594,0.3177,37.65,55,98,346975
0.4008,0.3128,37.93,55,98,346979
0.391,0.303,37.93,55,98,346982
0.3715,0.3177,37.93,55,98,346985
0.3372,0.3079,37.96,55,98,346988
0.3275,0.3275,37.74,55,98,346992
0.2884,0.3128,37.87,55,98,346995
0.259,0.3128,37.87,55,98,346998
0.2199,0.3128,37.96,55,98,347002
0.1808,0.3079,38.02,55,98,347005
0.1515,0.3226,37.77,55,98,347009
0.1026,0.3128,37.9,55,98,347012
0.0635,0.303,37.83,55,98,347016
0.044,0.3128,37.96,55,98,347019
0.0293,0.3079,38.02,55,98,347022
0.0196,0.3177,37.83,55,98,347026
0.0098,0.3226,37.93,55,98,347029
0,0.3177,37.8,55,98,347032
0,0.3128,37.99,55,98,347035
0,0.3079,37.96,55,98,347039
0,0.3226,37.77,55,98,347042
0,0.3079,37.77,55,98,347045
0,0.3128,37.83,55,98,347048
0,0.3079,38.02,55,98,347053
0,0.3128,37.99,55,98,347056
0,0.3177,37.93,55,98,347059
0,0.3128,37.87,55,98,347062
0,0.3617,37.62,55,98,347066
0,0.3079,38.05,55,98,347069
0,0.2981,37.96,55,98,347072
0,0.3226,37.87,55,98,347075
0.0098,0.3128,37.93,55,98,347078
0,0.3177,37.83,55,98,347082
0,0.3177,37.93,55,98,347085
0,0.3079,38.02,55,98,347088
0,0.3226,37.8,55,98,347091
0,0.3079,37.93,55,98,347096
0.0196,0.3128,37.87,55,98,347099
0,0.3128,37.93,55,98,347102
0,0.3324,37.96,55,98,347105
0,0.3079,37.8,55,98,347109
0.0342,0.3226,37.9,55,98,347112
0.0147,0.2981,37.83,55,98,347115
0,0.3128,37.99,55,98,347119
0,0.3079,37.96,55,98,347122
0.0049,0.3226,37.77,55,98,347125
0,0.3079,37.96,55,98,347128
0,0.3128,37.93,55,98,347132
0,0.3128,37.99,55,98,347136
0,0.3079,37.99,55,98,347139
0.0098,0.3226,37.77,55,98,347142
0.0049,0.3079,37.93,55,98,347146
0,0.3079,37.77,55,98,347149
0,0.3128,37.93,55,98,347152
0,0.3079,37.93,55,98,347155
0,0.3226,37.77,55,98,347159
0,0.3128,37.9,55,98,347162
0,0.3079,37.87,55,98,347165
0,0.3128,37.93,55,98,347168
0,0.303,37.99,55,98,347171
0,0.3275,37.8,55,98,347175
0,0.3275,37.87,55,98,347179
0,0.3079,37.93,55,98,347182
0.0098,0.3128,37.93,55,98,347185
0,0.3128,37.96,55,98,347189
0,0.3275,37.99,55,98,347192
0,0.3177,37.9,55,98,347195
0,0.303,37.93,55,98,347198
0,0.3128,37.96,55,98,347202
0,0.3324,37.96,55,98,347205
0,0.3275,37.71,55,98,347208
0,0.3177,37.83,55,98,347211
0,0.3128,37.9,55,98,347215
0,0.3128,37.93,55,98,347218
0,0.3079,37.93,55,98,347222
0,0.3275,37.71,55,98,347225
0,0.3128,37.83,55,98,347229
0,0.3128,37.99,55,98,347232
0,0.3128,37.83,55,98,347235
0,0.3128,37.99,55,98,347238
0,0.3226,37.62,55,98,347241
0,0.3128,37.87,55,98,347245
0,0.3177,38.02,55,98,347248
0,0.3128,37.9,55,98,347251
0,0.3079,37.96,55,98,347254
0,0.3177,37.68,55,98,347258
0,0.3128,37.87,55,98,347261
0,0.3079,37.99,55,98,347265
0,0.3177,37.93,55,98,347268
0.0244,0.2884,37.96,55,98,347272
0,0.3177,37.68,55,98,347275
0,0.3177,37.87,55,98,347278
0,0.3079,37.96,55,98,347281
0.0049,0.3128,37.9,55,98,347285
0,0.3128,37.96,55,98,347288
0,0.3177,37.71,55,98,347291
0,0.3128,37.9,55,98,347294
0,0.3079,38.08,55,98,347298
0,0.3226,37.9,55,98,347301
0,0.3079,38.08,55,98,347304
0,0.3128,37.71,55,98,347308
0,0.303,37.9,55,98,347312
0,0.3079,37.99,55,98,347315
0,0.3177,37.87,55,98,347318
0.0049,0.3079,37.96,55,98,347321
0,0.3177,37.71,55,98,347324
0.0049,0.3128,37.83,55,98,347328
0.0147,0.3079,37.96,55,98,347331
0.0196,0.3177,37.9,55,98,347334
0.0293,0.3324,37.96,55,98,347338
0.0391,0.3177,37.65,55,98,347341
0.0489,0.3128,37.93,55,98,347344
0.0733,0.3079,37.99,55,98,347347
0.0978,0.3079,37.96,55,98,347352
0.1124,0.3079,37.96,55,98,347355
0.1564,0.3226,37.68,55,98,347358
0.176,0.3128,37.8,55,98,347362
0.2248,0.3079,37.93,55,98,347365
0.259,0.3128,37.93,55,98,347368
0.2835,0.3128,37.99,55,98,347371
0.3372,0.3324,37.71,55,98,347375
0.3617,0.3177,37.87,55,98,347378
0.4057,0.3079,37.87,55,98,347381
0.4399,0.3128,37.93,55,98,347385
0.4741,0.2981,37.96,55,98,347388
0.5181,0.3177,37.77,55,98,347392
0.5425,0.3421,37.9,55,98,347396
0.5865,0.3128,37.83,55,98,347399
0.6061,0.3128,37.96,55,98,347402
0.6354,0.3079,37.96,55,98,347405
0.6696,0.347,37.8,55,98,347409
0.6891,0.303,37.9,55,98,347412
0.7283,0.3177,37.8,55,98,347415
0.7429,0.3128,37.99,55,98,347419
0.7771,0.3079,37.9,55,98,347422
0.8162,0.3128,37.83,55,98,347425
0.8358,0.3177,37.96,55,98,347429
0.8798,0.3128,37.87,55,98,347432
0.8798,0.3275,37.93,55,98,347436
0.914,0.303,37.96,55,98,347439
0.9433,0.3177,37.83,55,98,347443
0.9531,0.3079,38.08,55,98,347446
0.9922,0.3128,37.71,55,98,347449
1.002,0.3226,37.87,55,98,347453
1.0264,0.2981,37.96,55,98,347456
1.0655,0.3177,37.83,55,98,347459
1.0802,0.3128,37.96,55,98,347462
1.1241,0.3177,37.68,55,98,347466
1.1193,0.3079,37.59,55,98,347469
1.1437,0.3079,38.05,55,98,347472
1.1779,0.3128,37.9,55,98,347476
1.1926,0.3079,37.93,55,98,347480
1.2561,0.3177,37.68,55,98,347483
1.2414,0.3128,37.83,55,98,347487
1.261,0.303,37.93,55,98,347490
1.2805,0.3079,37.9,55,98,347493
1.305,0.2981,37.96,55,98,347496
1.3587,0.3275,37.74,55,98,347500
1.3392,0.3177,37.93,55,98,347503
1.3539,0.303,37.87,55,98,347506
1.3587,0.3079,37.25,55,98,347510
1.3783,0.3128,37.96,55,98,347513
1.4174,0.3177,37.77,55,98,347516
1.4125,0.303,37.93,55,98,347521
1.4712,0.3128,37.8,55,98,347524
1.437,0.3079,37.96,55,98,347527
1.4565,0.3079,37.96,55,98,347531
1.5249,0.3177,37.83,55,98,347534
1.4809,0.3079,37.93,55,98,347537
1.5298,0.3177,37.87,55,98,347540
1.5152,0.3079,37.96,55,98,347544
1.5298,0.3079,37.99,55,98,347547
1.5445,0.3177,37.8,55,98,347550
1.5689,0.3079,37.93,55,98,347554
1.5738,0.3128,37.77,55,98,347557
1.564,0.303,38.05,55,98,347560
1.5787,0.303,37.96,55,98,347565
1.5982,0.3177,37.87,55,98,347568
1.6373,0.3079,37.93,55,98,347572
1.6373,0.3079,37.93,55,98,347575
1.6862,0.3324,37.74,55,98,347578
1.6618,0.3177,38.15,55,98,347581
1.6716,0.3128,37.9,55,98,347585
1.6862,0.3128,37.93,55,98,347588
1.7009,0.3079,37.96,55,98,347591
1.7546,0.3519,37.8,55,98,347595
1.7449,0.3128,37.9,55,98,347598
1.7595,0.3079,37.83,55,98,347601
1.7498,0.3128,37.93,55,98,347606
1.7644,0.3079,37.96,55,98,347609
1.7937,0.3177,37.9,55,98,347612
1.7889,0.3128,37.96,55,98,347616
1.8035,0.3128,37.8,55,98,347619
1.7742,0.3079,37.96,55,98,347622
1.7937,0.3079,37.96,55,98,347625
1.8231,0.3079,37.83,55,98,347629
1.7986,0.3177,37.93,55,98,347632
1.828,0.3128,37.8,55,98,347635
1.7986,0.3079,37.87,55,98,347639
1.8084,0.3079,38.05,55,98,347642
1.8328,0.3177,37.83,55,98,347645
1.8231,0.3079,37.96,55,98,347650
1.8524,0.3128,37.74,55,98,347653
1.8328,0.3128,37.83,55,98,347656
1.8182,0.3079,37.96,55,98,347659
1.8426,0.3177,37.9,55,98,347663
1.8231,0.3079,37.93,55,98,347666
1.8768,0.3177,37.68,55,98,347669
1.828,0.3128,37.93,55,98,347673
1.8377,0.3079,37.96,55,98,347676
1.8328,0.3128,37.9,55,98,347679
1.828,0.3079,37.99,55,98,347683
1.8866,0.3275,37.68,55,98,347686
1.8475,0.3128,37.87,55,98,347689
1.8719,0.303,37.9,55,98,347693
1.8328,0.3079,37.93,55,98,347697
1.8328,0.3079,37.93,55,98,347700
1.8719,0.3226,37.77,55,98,347703
1.8426,0.3079,37.93,55,98,347707
1.8524,0.3128,37.83,55,98,347710
1.8377,0.3128,37.96,55,98,347713
1.8524,0.3079,37.96,55,98,347717
1.8964,0.3177,37.93,55,98,347720
1.8964,0.3128,37.93,55,98,347723
1.9355,0.347,37.83,55,98,347727
1.9159,0.3079,37.93,55,98,347730
1.9306,0.3079,37.99,55,98,347734
1.9453,0.3128,37.87,55,98,347737
1.9404,0.3128,37.99,55,98,347741
1.9844,0.3128,37.9,55,98,347744
1.9697,0.3079,37.99,55,98,347747
1.999,0.3079,37.96,55,98,347751
2.0332,0.3226,37.83,55,98,347754
2.0137,0.3128,37.96,55,98,347757
2.043,0.3128,37.74,55,98,347761
1.999,0.3128,37.83,55,98,347764
1.9844,0.2884,37.96,55,98,347767
1.9795,0.3177,37.16,55,98,347770
1.9501,0.2933,37.96,55,98,347774
1.9941,0.3177,37.68,55,98,347778
1.9404,0.3128,37.87,55,98,347781
1.9404,0.3079,37.99,55,98,347785
1.9257,0.3128,37.87,55,98,347788
1.9062,0.303,37.96,55,98,347791
1.911,0.3324,37.71,55,98,347795
1.8426,0.3226,37.87,55,98,347798
1.8182,0.3079,37.87,55,98,347801
1.7889,0.3079,37.96,55,98,347805
1.8133,0.3079,37.96,55,98,347808
1.8084,0.3226,37.9,55,98,347811
1.7742,0.3079,38.02,55,98,347814
1.7889,0.3421,37.87,55,98,347819
1.7693,0.3079,37.96,55,98,347822
1.7791,0.3079,37.93,55,98,347825
1.8084,0.3177,37.77,55,98,347829
1.784,0.3128,37.93,55,98,347832
1.8133,0.3177,37.87,55,98,347835
1.784,0.2884,37.99,55,98,347839
