1.564,0.2835,39.16,67,97,257770
1.5934,0.2933,39.09,67,97,257773
1.5934,0.2786,39.09,67,97,257776
1.6031,0.2884,39,67,97,257780
1.5787,0.2835,39.09,67,97,257783
1.5885,0.2835,39.09,67,97,257786
1.6129,0.2933,39.09,67,97,257790
1.5982,0.2835,39.06,67,97,257794
1.6325,0.2884,39.16,67,97,257797
1.5982,0.2835,39.12,67,97,257800
1.6031,0.2835,39.19,67,97,257804
1.6129,0.2933,39,67,97,257807
1.5787,0.2835,39.19,67,97,257810
1.5885,0.2981,38.9,67,97,257814
1.564,0.2835,39.03,67,97,257817
1.5396,0.2835,39.12,67,97,257820
1.5543,0.2884,39.06,67,97,257824
1.5787,0.2786,39.16,67,97,257827
1.5787,0.2933,38.87,67,97,257830
1.5738,0.2786,39.03,67,97,257835
1.564,0.2786,39.12,67,97,257838
1.5689,0.2884,39.19,67,97,257841
1.5738,0.2981,39.09,67,97,257844
1.6276,0.2884,38.84,67,97,257848
1.5934,0.2835,39.03,67,97,257851
1.5934,0.2786,39.09,67,97,257854
1.608,0.2884,39.22,67,97,257858
1.608,0.2786,39.12,67,97,257861
1.6618,0.2981,38.93,67,97,257864
1.6325,0.2884,39.06,67,97,257868
1.6422,0.2933,39.03,67,97,257871
1.6227,0.2835,39.12,67,97,257874
1.6276,0.2981,39.19,67,97,257879
1.6618,0.2933,39.03,67,97,257882
1.6373,0.2835,39.09,67,97,257885
1.6667,0.2884,39,67,97,257888
1.652,0.2835,39.16,67,97,257892
1.6618,0.303,39.12,67,97,257895
1.6813,0.2884,39.03,67,97,257898
1.6716,0.2835,39.12,67,97,257902
1.7107,0.2835,38.96,67,97,257905
1.6813,0.2835,39.09,67,97,257908
1.6862,0.2835,39.09,67,97,257912
1.7204,0.2835,39.03,67,97,257915
1.7009,0.2688,39.12,67,97,257918
1.74,0.2884,38.9,67,97,257922
1.7058,0.2786,39.12,67,97,257926
1.7253,0.2835,39.12,67,97,257929
1.7302,0.2884,39.09,67,97,257932
1.7204,0.2835,39.12,67,97,257936
1.7644,0.2933,38.87,67,97,257939
1.7449,0.3226,39.06,67,97,257942
1.7742,0.2786,39.12,67,97,257946
1.7595,0.2884,39.09,67,97,257949
1.7791,0.2835,39.12,67,97,257952
1.8573,0.303,38.87,67,97,257956
1.8377,0.2933,39.06,67,97,257959
1.8915,0.2786,39.03,67,97,257963
1.8719,0.2835,39.12,67,97,257966
1.8866,0.2835,39.12,67,97,257970
1.9355,0.2884,38.96,67,97,257973
1.8866,0.2835,39.12,67,97,257976
1.911,0.2884,39,67,97,257980
1.8964,0.2835,39.16,67,97,257983
1.9062,0.2835,39.12,67,97,257986
1.9453,0.2933,39.06,67,97,257990
1.8915,0.2835,39.28,67,97,257993
1.8964,0.2933,39,67,97,257996
1.8524,0.2835,39.12,67,97,258000
1.8524,0.2835,39.09,67,97,258003
1.8671,0.2884,39,67,97,258007
1.8328,0.2835,38.96,67,97,258010
1.8524,0.2835,38.93,67,97,258014
1.828,0.2835,39.03,67,97,258017
1.8084,0.2786,39.09,67,97,258020
1.7986,0.2933,39.03,67,97,258024
1.7546,0.2835,39.12,67,97,258027
1.7742,0.303,38.9,67,97,258030
1.7058,0.2835,39.09,67,97,258034
1.696,0.2786,39.12,67,97,258037
1.6813,0.2884,39.09,67,97,258040
1.6667,0.2933,39.09,67,97,258044
1.7107,0.2884,38.84,67,97,258048
1.6569,0.2835,39.03,67,97,258051
1.6618,0.2737,39.09,67,97,258054
1.652,0.2835,39.09,67,97,258058
1.6373,0.2835,39.16,67,97,258061
1.7155,0.2884,38.93,67,97,258064
1.6471,0.2884,39.06,67,97,258068
1.6422,0.2786,39.09,67,97,258071
1.6325,0.2688,39.12,67,97,258074
1.6373,0.2835,39.19,67,97,258078
1.6813,0.2884,38.93,67,97,258081
1.6618,0.2884,39.12,67,97,258084
1.6911,0.2884,39,67,97,258088
1.6813,0.2835,39.12,67,97,258092
1.6862,0.2835,39.12,67,97,258095
1.7009,0.2884,38.93,67,97,258098
1.6862,0.2835,39.12,67,97,258102
1.7253,0.2884,38.96,67,97,258105
1.6862,0.2835,39.12,67,97,258108
1.6716,0.2835,39.09,67,97,258112
1.6422,0.2884,39.06,67,97,258115
1.5787,0.2835,39.12,67,97,258118
1.5543,0.2884,38.96,67,97,258122
1.5396,0.2835,39.12,67,97,258125
1.7058,0.2835,39.09,67,97,258128
2.0674,0.2884,39.06,67,97,258132
2.6344,0.2835,39.12,67,97,258136
3.4946,0.2933,38.87,67,97,258139
4.1447,0.2884,39.03,67,97,258142
4.5064,0.2786,39.16,67,97,258146
4.741,0.2884,39.06,67,97,258149
4.8192,0.2884,39.12,67,97,258152
4.7605,0.303,38.87,67,97,258156
4.0762,0.2835,38.96,67,97,258159
3.2502,0.2786,39.09,67,97,258162
2.5122,0.2688,39.09,67,97,258166
1.9501,0.2786,39.12,67,97,258169
1.6129,0.303,39,67,97,258172
1.3539,0.2884,39.09,67,97,258176
1.2512,0.2786,39.03,67,97,258180
1.1926,0.2835,39.22,67,97,258183
1.1828,0.2786,39.09,67,97,258186
1.1877,0.2933,39.03,67,97,258190
1.1681,0.2835,39.22,67,97,258193
1.173,0.2933,39,67,97,258196
1.1486,0.2835,39.16,67,97,258200
1.1584,0.3079,39.12,67,97,258203
1.1779,0.303,38.96,67,97,258206
1.1681,0.2835,39.19,67,97,258209
1.2219,0.2835,39,67,97,258213
1.2463,0.2737,39.09,67,97,258216
1.2366,0.2786,39.12,67,97,258220
1.2708,0.2884,39,67,97,258224
1.2854,0.2786,39.12,67,97,258227
1.3245,0.2835,38.93,67,97,258230
1.437,0.2933,38.81,67,97,258235
1.4174,0.2835,39.06,67,97,258238
1.437,0.2786,39.09,67,97,258242
1.4418,0.2835,39.16,67,97,258245
1.4663,0.2786,39.12,67,97,258248
1.5396,0.303,38.96,67,97,258252
1.5298,0.2933,39.06,67,97,258255
1.5836,0.2835,39.03,67,97,258258
1.5591,0.2835,39.22,67,97,258262
1.5885,0.2786,39.12,67,97,258266
1.6373,0.2933,38.93,67,97,258269
1.6569,0.2835,39.09,67,97,258272
1.6716,0.2688,39,67,97,258276
1.6618,0.2835,39.03,67,97,258279
1.6813,0.2835,39.16,67,97,258282
1.7058,0.2884,39.09,67,97,258286
1.7058,0.2835,39.16,67,97,258289
1.7546,0.2835,39,67,97,258292
1.74,0.2786,39.12,67,97,258296
1.7644,0.2835,39.12,67,97,258299
1.7889,0.3079,39.06,67,97,258302
1.828,0.2835,39.12,67,97,258306
1.8328,0.2688,38.93,67,97,258310
1.8133,0.2786,39.12,67,97,258313
1.8426,0.2786,39.12,67,97,258316
1.8671,0.2884,39.03,67,97,258320
1.8719,0.2835,39.12,67,97,258323
1.9453,0.2933,38.87,67,97,258326
1.9453,0.2884,39.06,67,97,258330
1.9648,0.2786,39.22,67,97,258333
2.0039,0.2884,39.09,67,97,258336
2.0235,0.2786,39.16,67,97,258340
2.1114,0.2981,38.87,67,97,258343
2.0968,0.2835,39,67,97,258347
2.1212,0.2688,39.09,67,97,258350
2.1554,0.2835,39.28,67,97,258354
2.1994,0.2786,39.12,67,97,258357
2.3021,0.2884,39,67,97,258360
2.2825,0.2835,39.09,67,97,258364
2.3314,0.2835,39.41,67,97,258367
2.3412,0.2786,39.12,67,97,258370
2.3656,0.2835,39,67,97,258374
2.4242,0.2884,39.03,67,97,258377
2.4145,0.2688,39.12,67,97,258380
2.4585,0.2835,39,67,97,258383
2.4389,0.2884,39.09,67,97,258387
2.4682,0.2786,39.12,67,97,258391
2.5073,0.2933,38.96,67,97,258394
2.4633,0.2835,39.09,67,97,258398
2.4878,0.2835,39.03,67,97,258401
2.4096,0.2786,39.03,67,97,258404
2.3705,0.2737,39.12,67,97,258408
2.3265,0.2884,39,67,97,258411
2.2385,0.2835,39.06,67,97,258414
2.1896,0.2884,38.9,67,97,258417
2.043,0.2786,39.06,67,97,258421
1.9404,0.2786,39.12,67,97,258424
1.8328,0.2884,39.32,67,97,258427
1.7155,0.2737,39.12,67,97,258432
1.652,0.2933,38.87,67,97,258435
1.5103,0.2786,39.19,67,97,258438
1.4321,0.2786,39.12,67,97,258442
1.349,0.303,39.12,67,97,258445
1.2561,0.2786,39.12,67,97,258448
1.2317,0.303,38.87,67,97,258452
1.1584,0.2737,39.03,67,97,258455
1.1193,0.2835,39.06,67,97,258458
1.0802,0.3079,39.09,67,97,258461
1.0557,0.2786,39.12,67,97,258465
1.0753,0.2884,38.93,67,97,258468
1.0117,0.2884,39.09,67,97,258471
1.0166,0.2835,39.03,67,97,258476
1.0068,0.2835,39.12,67,97,258479
1.0166,0.2786,39.12,67,97,258482
1.0411,0.2933,39,67,97,258486
1.0313,0.2835,39.16,67,97,258489
1.0557,0.2835,39,67,97,258492
1.0704,0.2884,39.16,67,97,258495
1.0508,0.2786,39.28,67,97,258499
1.0802,0.2884,39.09,67,97,258502
1.085,0.2835,39.06,67,97,258505
1.1144,0.3177,39,67,97,258509
1.1095,0.2835,39.12,67,97,258512
1.1241,0.2835,39.12,67,97,258515
1.1535,0.2884,38.96,67,97,258520
1.1388,0.2835,39.12,67,97,258523
1.1681,0.2884,39,67,97,258526
1.1779,0.2786,39.03,67,97,258529
1.1877,0.2786,39.12,67,97,258533
1.2072,0.3177,38.96,67,97,258536
1.2121,0.2835,39.12,67,97,258539
1.2512,0.2884,38.84,67,97,258543
1.2366,0.2786,39.09,67,97,258546
1.2414,0.2786,39.12,67,97,258549
1.2561,0.3128,39.09,67,97,258553
1.2708,0.2835,39.12,67,97,258556
1.2952,0.2933,38.84,67,97,258560
1.2952,0.2786,39.09,67,97,258564
1.2854,0.2737,39.09,67,97,258567
1.2854,0.2884,39.06,67,97,258570
1.2805,0.2835,39.12,67,97,258573
1.3343,0.303,38.93,67,97,258577
1.3196,0.2884,39,67,97,258580
1.3196,0.2835,39.03,67,97,258583
1.3148,0.2835,39.09,67,97,258587
1.3245,0.2786,39.16,67,97,258590
1.3587,0.2884,38.93,67,97,258593
1.3343,0.2884,38.93,67,97,258597
1.349,0.2933,38.96,67,97,258600
1.3343,0.2835,39.12,67,97,258604
1.3441,0.2786,39.09,67,97,258607
1.3636,0.2933,39.03,67,97,258611
1.3441,0.2835,39.19,67,97,258614
1.3685,0.2884,38.96,67,97,258617
1.3392,0.2786,39.09,67,97,258621
1.3392,0.2786,39.19,67,97,258624
1.349,0.2786,39.12,67,97,258627
1.3441,0.2835,39.12,67,97,258631
1.3832,0.2835,38.9,67,97,258634
1.3587,0.2835,39.12,67,97,258637
1.3636,0.2786,39.03,67,97,258641
1.3636,0.2933,39.06,67,97,258644
1.3441,0.2835,39.19,67,97,258648
1.3783,0.2981,38.87,67,97,258651
1.3881,0.2884,39.03,67,97,258655
1.3636,0.2786,39.12,67,97,258658
1.3636,0.2786,39.06,67,97,258661
1.3539,0.2688,39.12,67,97,258665
1.4027,0.2981,38.81,67,97,258668
1.3539,0.2835,39.03,67,97,258671
1.3636,0.2786,39.06,67,97,258675
1.3587,0.2835,39.12,67,97,258678
1.3636,0.2786,39.09,67,97,258681
1.3978,0.2981,38.96,67,97,258685
1.3636,0.2786,39.09,67,97,258689
1.3881,0.2786,39.03,67,97,258692
1.3636,0.2835,39.12,67,97,258695
1.3734,0.2835,39.12,67,97,258699
1.3978,0.2884,39.09,67,97,258702
1.3832,0.2835,39.16,67,97,258705
1.4027,0.2786,38.96,67,97,258709
1.3734,0.2835,39.09,67,97,258712
1.3881,0.2737,39.12,67,97,258715
1.4174,0.2933,39,67,97,258719
1.393,0.2835,39.09,67,97,258722
1.4174,0.2835,38.96,67,97,258725
1.4076,0.2835,39.16,67,97,258729
1.4174,0.2835,39.06,67,97,258733
1.4272,0.2884,39.03,67,97,258736
1.4174,0.2786,39.06,67,97,258739
1.4467,0.2933,38.87,67,97,258743
1.4125,0.2835,39.12,67,97,258746
1.4125,0.2786,39.09,67,97,258749
1.4174,0.2688,39.06,67,97,258753
1.4223,0.2835,39.12,67,97,258756
1.4663,0.2933,38.84,67,97,258759
1.4272,0.2835,39.16,67,97,258763
1.4321,0.2835,39.12,67,97,258766
1.4272,0.2835,39.19,67,97,258769
1.4565,0.2737,39.12,67,97,258774
1.4663,0.2981,38.93,67,97,258777
1.437,0.2786,39.06,67,97,258780
1.4321,0.2786,39.03,67,97,258784
1.4223,0.303,39.12,67,97,258787
1.4418,0.2786,39.09,67,97,258790
1.4663,0.2933,38.93,67,97,258793
1.4418,0.2835,39.12,67,97,258797
1.437,0.2835,39,67,97,258800
1.4027,0.2835,39.09,67,97,258803
1.3978,0.2737,39.12,67,97,258807
1.4027,0.2884,39.06,67,97,258810
1.3832,0.2835,38.43,67,97,258813
1.4125,0.3128,39.06,67,97,258818
1.3734,0.2786,39.09,67,97,258821
1.3734,0.2786,39.12,67,97,258824
1.3734,0.303,39.03,67,97,258827
1.3685,0.2835,39.12,67,97,258831
1.393,0.2835,38.93,67,97,258834
1.3636,0.2884,39.12,67,97,258837
1.3685,0.2786,39.12,67,97,258841
1.3685,0.2933,39.06,67,97,258844
1.4663,0.2835,39.09,67,97,258848
1.437,0.2688,39.12,67,97,258851
1.4712,0.2981,38.9,67,97,258854
1.4223,0.2884,39.06,67,97,258859
1.4125,0.2835,39.03,67,97,258862
1.4174,0.2981,39.09,67,97,258865
1.4809,0.2835,39.19,67,97,258869
1.5005,0.2933,39.06,67,97,258872
1.4858,0.2835,39.12,67,97,258875
1.4956,0.2786,39,67,97,258879
1.4565,0.2835,39.09,67,97,258882
1.4467,0.2786,39.09,67,97,258885
1.4565,0.2786,39.09,67,97,258888
1.4223,0.2835,39.09,67,97,258892
1.4418,0.2884,38.55,67,97,258895
1.4565,0.2688,39.12,67,97,258898
1.4418,0.2786,39.12,67,97,258903
1.4516,0.2835,39,67,97,258906
1.4076,0.2835,39.09,67,97,258909
1.3978,0.2835,38.93,67,97,258913
1.3539,0.2835,39.03,67,97,258916
1.3294,0.2786,39.09,67,97,258919
1.3196,0.2933,39.03,67,97,258922
1.2903,0.2981,39.12,67,97,258926
1.3099,0.2884,38.93,67,97,258929
1.2561,0.2786,39.19,67,97,258932
1.2463,0.2835,39.12,67,97,258936
1.2414,0.2884,39.16,67,97,258939
1.2414,0.2786,39.09,67,97,258942
1.2708,0.303,38.84,67,97,258947
1.2512,0.2835,39.03,67,97,258950
1.2463,0.2835,39.12,67,97,258953
1.2512,0.2835,39.12,67,97,258957
1.2512,0.2737,39.12,67,97,258960
1.2854,0.2981,38.96,67,97,258963
1.2561,0.2884,39.09,67,97,258966
1.2561,0.2835,39,67,97,258970
1.2366,0.2835,39.12,67,97,258973
1.2512,0.2835,39.09,67,97,258976
1.2757,0.3079,38.96,67,97,258980
1.2561,0.2835,39.09,67,97,258983
1.2757,0.2981,39,67,97,258987
1.2903,0.2835,39.12,67,97,258991
1.2854,0.2786,39.12,67,97,258994
1.2952,0.2933,39.06,67,97,258997
1.2659,0.2786,39.09,67,97,259001
1.2561,0.2835,39.03,67,97,259004
1.173,0.2884,39.09,67,97,259007
1.1339,0.2884,39.12,67,97,259010
1.1584,0.2835,39.06,67,97,259014
1.3392,0.2835,39.09,67,97,259017
1.7595,0.2933,38.9,67,97,259020
2.3558,0.2835,39.22,67,97,259024
3.1867,0.2786,39.09,67,97,259027
3.9834,0.2933,39.06,67,97,259031
4.4233,0.2835,39.16,67,97,259035
4.8192,0.2981,38.87,67,97,259038
4.7801,0.2884,39.03,67,97,259041
4.4428,0.2835,39.12,67,97,259044
3.783,0.2933,39.09,67,97,259048
2.9081,0.2786,39.12,67,97,259051
2.219,0.2981,38.81,67,97,259054
1.5836,0.2835,39.03,67,97,259058
1.2023,0.2786,39.09,67,97,259061
0.9873,0.2835,39.12,67,97,259064
0.8798,0.2835,39.19,67,97,259068
0.8553,0.2688,38.96,67,97,259072
0.8016,0.2835,39.28,67,97,259075
0.7967,0.2835,39.03,67,97,259078
0.7771,0.2884,39.09,67,97,259082
0.7674,0.2786,39.12,67,97,259085
0.7869,0.2933,38.96,67,97,259088
0.7722,0.2884,39.12,67,97,259092
0.782,0.2933,39,67,97,259095
0.7771,0.2835,39.12,67,97,259098
0.7771,0.2737,39.06,67,97,259102
0.8211,0.303,39,67,97,259105
0.8162,0.2835,39.09,67,97,259108
0.8553,0.2884,39.03,67,97,259111
0.8553,0.2786,39.28,67,97,259116
0.8895,0.2786,39.16,67,97,259119
0.914,0.2835,39,67,97,259122
0.914,0.2786,39.12,67,97,259126
0.9775,0.2835,38.96,67,97,259129
0.9775,0.2835,39.06,67,97,259132
1.0166,0.2786,39.12,67,97,259136
1.0459,0.2835,39.12,67,97,259139
1.0655,0.2835,39.19,67,97,259142
1.1046,0.303,38.87,67,97,259145
1.0948,0.2786,39.12,67,97,259149
1.1095,0.2786,39.12,67,97,259152
1.1388,0.3177,39.06,67,97,259155
1.1584,0.2688,39.12,67,97,259160
1.2072,0.2933,39.22,67,97,259163
1.2023,0.3128,39.03,67,97,259166
1.2072,0.2786,39.12,67,97,259170
1.2268,0.3079,39.12,67,97,259173
1.2463,0.2786,39.09,67,97,259176
1.3099,0.303,38.87,67,97,259179
1.2952,0.2884,39,67,97,259183
1.3196,0.2835,39.06,67,97,259186
1.3343,0.2688,39.09,67,97,259189
1.3734,0.2786,39.09,67,97,259193
1.4321,0.3324,38.93,67,97,259196
1.4223,0.2688,39.09,67,97,259200
1.4663,0.2835,39.06,67,97,259204
1.4614,0.3324,39.09,67,97,259207
1.4761,0.2786,39.12,67,97,259210
1.5054,0.303,39.03,67,97,259213
1.5054,0.2884,39.09,67,97,259217
1.5396,0.2786,38.96,67,97,259220
1.5249,0.2835,39.16,67,97,259223
1.5445,0.2737,39.12,67,97,259227
1.5885,0.2933,39,67,97,259230
1.5738,0.2884,39.09,67,97,259233
1.6031,0.2835,39,67,97,259237
1.6129,0.2884,39.03,67,97,259240
1.6373,0.2786,39.12,67,97,259244
1.6764,0.2884,38.93,67,97,259248
1.6813,0.2835,39.16,67,97,259251
1.7351,0.2981,38.9,67,97,259254
1.7204,0.2835,39.16,67,97,259257
1.7498,0.2835,39.16,67,97,259261
1.7791,0.2688,39.09,67,97,259264
1.7986,0.2835,39.09,67,97,259267
1.8671,0.2933,38.77,67,97,259271
1.8671,0.2786,39.06,67,97,259274
1.8719,0.2786,39.12,67,97,259277
1.8964,0.2933,39.12,67,97,259281
1.9159,0.2835,38.4,67,97,259284
1.999,0.3079,38.9,67,97,259288
1.9746,0.2835,39.03,67,97,259292
1.9844,0.2688,39.03,67,97,259295
1.9892,0.3079,39.06,67,97,259298
1.9941,0.2835,39.09,67,97,259301
2.0235,0.2884,38.93,67,97,259305
1.9648,0.2884,39.22,67,97,259308
1.9355,0.2786,39.03,67,97,259311
1.8524,0.2835,39.12,67,97,259315
1.7937,0.2835,39.09,67,97,259318
1.74,0.2884,39.03,67,97,259321
1.6276,0.2688,39.09,67,97,259325
1.5494,0.2884,39.09,67,97,259329
1.4174,0.2835,39.09,67,97,259332
1.3294,0.2835,39.09,67,97,259335
1.2268,0.2835,39.06,67,97,259339
1.1486,0.2835,39.22,67,97,259342
1.0899,0.2835,38.93,67,97,259345
1.002,0.2835,39.12,67,97,259349
0.9629,0.2786,39.12,67,97,259352
0.9238,0.2884,39,67,97,259355
0.8749,0.2835,39.12,67,97,259359
0.8602,0.2884,38.9,67,97,259362
0.8309,0.2835,39.06,67,97,259365
0.8211,0.2884,39.09,67,97,259368
0.8162,0.2884,39.03,67,97,259373
0.8211,0.2786,39.12,67,97,259376
0.8553,0.2933,39.19,67,97,259379
0.8407,0.2786,39.03,67,97,259383
0.8651,0.2688,39.09,67,97,259386
0.8895,0.2835,39.09,67,97,259389
0.8993,0.2786,39.09,67,97,259392
0.9531,0.2933,38.81,67,97,259396
0.9531,0.2786,39.06,67,97,259399
0.9922,0.2737,39.06,67,97,259402
1.002,0.2835,39.06,67,97,259406
1.0166,0.2786,39.09,67,97,259409
1.0753,0.2933,38.9,67,97,259412
1.0899,0.2933,39.06,67,97,259417
1.0899,0.2786,39.03,67,97,259420
1.1046,0.2835,39.19,67,97,259423
1.1241,0.303,39.12,67,97,259426
1.1584,0.2884,38.9,67,97,259430
1.1486,0.2884,39.03,67,97,259433
1.1632,0.2933,39,67,97,259436
1.1486,0.2835,39.12,67,97,259440
1.1681,0.2786,39.28,67,97,259443
1.2023,0.2933,39.03,67,97,259446
1.2023,0.2835,39.09,67,97,259450
1.2414,0.2884,39.09,67,97,259453
1.2219,0.2933,39.12,67,97,259457
1.2708,0.2786,39.12,67,97,259461
1.2854,0.2786,39.09,67,97,259464
1.305,0.2933,39.03,67,97,259467
1.2854,0.2786,39.12,67,97,259471
1.3441,0.2933,38.87,67,97,259474
1.3294,0.2786,39,67,97,259477
1.3294,0.2786,39.12,67,97,259481
1.3441,0.2835,39.06,67,97,259484
1.349,0.2688,39.06,67,97,259487
1.3832,0.2981,38.9,67,97,259491
1.3587,0.303,39.06,67,97,259494
1.3783,0.2737,39.06,67,97,259497
1.3685,0.2835,39.09,67,97,259501
1.3734,0.2786,39.12,67,97,259505
1.4174,0.2933,39.03,67,97,259508
1.393,0.2835,39.09,67,97,259511
1.4076,0.2835,38.96,67,97,259515
1.3978,0.2786,39.16,67,97,259518
1.3978,0.2786,39.16,67,97,259521
1.4125,0.2933,39.03,67,97,259525
1.4027,0.2835,39.12,67,97,259528
1.4321,0.2884,39.06,67,97,259531
1.4076,0.2835,39.16,67,97,259535
1.4125,0.2835,39.12,67,97,259538
1.4272,0.2933,39,67,97,259542
1.3978,0.3079,39.09,67,97,259545
1.4174,0.2737,38.96,67,97,259549
1.3978,0.2786,39.03,67,97,259552
1.3978,0.2786,38.9,67,97,259555
1.4076,0.2884,38.93,67,97,259559
1.393,0.2786,39.12,67,97,259562
1.4418,0.2884,38.9,67,97,259565
1.4174,0.2786,39.12,67,97,259569
1.4174,0.2786,39.19,67,97,259572
1.4223,0.2786,39.12,67,97,259575
1.4223,0.2786,39.09,67,97,259579
1.4614,0.2933,38.84,67,97,259582
1.4321,0.2786,39.12,67,97,259586
1.4418,0.2786,39.09,67,97,259589
1.4467,0.2884,39.09,67,97,259593
1.4321,0.2786,39.19,67,97,259596
1.4761,0.303,38.93,67,97,259599
1.4467,0.2884,39.06,67,97,259603
1.4516,0.2786,39.22,67,97,259606
1.4418,0.2835,39.12,67,97,259609
1.4516,0.2786,39.12,67,97,259613
1.4858,0.2884,38.93,67,97,259616
1.4565,0.2835,39.09,67,97,259619
1.4809,0.2884,39.03,67,97,259623
1.4663,0.2786,39.09,67,97,259627
1.4761,0.2786,39.19,67,97,259630
1.4858,0.2933,39.06,67,97,259633
1.4761,0.2786,39.12,67,97,259637
1.5103,0.2884,38.81,67,97,259640
1.4809,0.2884,39.16,67,97,259643
1.4907,0.2786,39.12,67,97,259647
1.4956,0.2835,39.03,67,97,259650
1.4956,0.2884,39.09,67,97,259653
1.52,0.2688,38.93,67,97,259657
1.4858,0.2786,39.12,67,97,259660
1.4907,0.2737,39.12,67,97,259663
1.5103,0.2884,39.03,67,97,259667
1.4956,0.2835,39.09,67,97,259671
1.5396,0.2884,38.87,67,97,259674
1.52,0.2835,38.96,67,97,259677
1.5103,0.2786,39.12,67,97,259681
1.52,0.2835,39.09,67,97,259684
1.52,0.2835,39.12,67,97,259687
1.564,0.2933,38.84,67,97,259691
1.5152,0.2786,39,67,97,259694
1.5152,0.2737,39.06,67,97,259697
1.5152,0.303,39.09,67,97,259701
1.5396,0.2786,39.16,67,97,259704
1.5591,0.2981,38.93,67,97,259707
1.5249,0.2835,39.16,67,97,259710
1.5445,0.2786,39,67,97,259715
1.52,0.2835,39.16,67,97,259718
1.52,0.2786,39.12,67,97,259721
1.5445,0.2884,39.03,67,97,259725
1.5249,0.2835,39.12,67,97,259728
1.5396,0.2835,38.96,67,97,259731
1.5152,0.2786,39.09,67,97,259735
1.5249,0.2786,39.03,67,97,259738
1.5543,0.2884,38.96,67,97,259741
1.5396,0.2786,39.09,67,97,259745
1.5885,0.2981,39,67,97,259748
1.5885,0.2786,39.06,67,97,259751
1.608,0.2688,39.09,67,97,259755
1.6373,0.2835,39.03,67,97,259759
1.6373,0.2835,39.12,67,97,259762
1.6862,0.2835,38.9,67,97,259765
1.6422,0.2786,39.03,67,97,259769
1.6569,0.303,39.12,67,97,259772
1.6716,0.2933,39.06,67,97,259775
1.6911,0.2786,39.22,67,97,259779
1.7253,0.2933,38.87,67,97,259782
1.6618,0.2786,39.03,67,97,259785
1.652,0.2835,39.12,67,97,259789
1.6276,0.2835,39.09,67,97,259792
1.5982,0.2835,39.12,67,97,259795
1.6276,0.2981,38.87,67,97,259799
1.5934,0.2835,39.06,67,97,259803
1.5836,0.2786,39.03,67,97,259806
1.5689,0.2835,39.09,67,97,259809
1.564,0.2786,39.12,67,97,259813
1.5836,0.3079,38.93,67,97,259816
1.52,0.2884,39.06,67,97,259819
1.5005,0.2786,39,67,97,259823
1.4712,0.2981,39.12,67,97,259826
1.4663,0.2688,39.12,67,97,259829
1.4858,0.2933,39,67,97,259832
1.4565,0.2835,39.09,67,97,259836
1.4956,0.2835,38.96,67,97,259840
1.4712,0.2786,39.12,67,97,259843
1.4761,0.2786,39.16,67,97,259847
1.4858,0.2884,39.06,67,97,259850
1.4712,0.2688,39.12,67,97,259853
1.5054,0.2835,39.03,67,97,259857
1.5005,0.2688,39.12,67,97,259860
1.4858,0.2786,39.12,67,97,259863
1.5152,0.2884,39.03,67,97,259867
1.5054,0.2737,39.16,67,97,259870
1.5396,0.2884,38.84,67,97,259873
1.5445,0.2933,39.03,67,97,259877
1.52,0.2786,39.22,67,97,259880
1.5396,0.2884,39.03,67,97,259884
1.5249,0.2786,39.12,67,97,259887
1.5738,0.2933,38.93,67,97,259891
1.5445,0.2835,39.03,67,97,259894
1.5543,0.2737,39.09,67,97,259897
1.5738,0.2884,39.12,67,97,259901
1.5982,0.2786,39.12,67,97,259904
1.6373,0.303,38.93,67,97,259907
1.5787,0.2835,39.06,67,97,259911
1.5249,0.2688,39.03,67,97,259914
1.4614,0.2835,39.28,67,97,259917
1.4565,0.2786,39.12,67,97,259921
1.5836,0.2981,39.03,67,97,259924
1.8524,0.2884,39.09,67,97,259928
2.3754,0.2835,39,67,97,259931
3.0645,0.2835,39.12,67,97,259935
3.8514,0.2835,39.12,67,97,259938
4.4379,0.2933,38.96,67,97,259941
4.653,0.2835,39.09,67,97,259945
4.8485,0.2933,39,67,97,259948
4.6579,0.2786,39.09,67,97,259951
4.1691,0.2786,39.19,67,97,259955
3.4115,0.2884,39.03,67,97,259958
2.6246,0.2786,39.09,67,97,259961
2.0283,0.2688,38.96,67,97,259964
1.564,0.2786,39.09,67,97,259969
1.3001,0.3177,39.12,67,97,259972
1.1681,0.2835,39.06,67,97,259975
1.0997,0.2835,39.12,67,97,259979
1.0997,0.2884,38.9,67,97,259982
1.1144,0.2835,39.12,67,97,259985
1.0948,0.2835,39.12,67,97,259989
1.0899,0.2884,39.06,67,97,259992
1.0948,0.2786,39.09,67,97,259995
1.1241,0.2884,38.93,67,97,259998
1.1144,0.2835,38.3,67,97,260002
1.1339,0.2884,39.12,67,97,260005
1.1632,0.2835,39.09,67,97,260008
1.1877,0.303,39.09,67,97,260013
1.2463,0.303,38.87,67,97,260016
1.2366,0.2884,39.03,67,97,260019
1.261,0.2786,39.06,67,97,260023
1.2805,0.2835,39.19,67,97,260026
1.3099,0.2786,39.12,67,97,260029
1.3685,0.2933,39,67,97,260032
1.3636,0.2786,39.03,67,97,260036
1.4076,0.2981,39,67,97,260039
1.4272,0.2786,39.12,67,97,260042
1.4516,0.2786,39.09,67,97,260046
1.5347,0.2884,39.03,67,97,260049
1.5152,0.2835,39.09,67,97,260052
1.5591,0.2835,38.96,67,97,260057
1.564,0.2786,39.12,67,97,260060
1.5885,0.2786,39.12,67,97,260063
1.6373,0.3079,38.96,67,97,260066
1.7155,0.2884,39.03,67,97,260070
1.7107,0.2835,39.19,67,97,260074
1.7644,0.2933,38.84,67,97,260077
1.7302,0.2835,39.03,67,97,260080
1.7449,0.2786,39.12,67,97,260083
1.7644,0.2835,39.09,67,97,260087
1.784,0.2737,39.12,67,97,260090
1.8622,0.2981,38.9,67,97,260093
1.8377,0.2835,39.06,67,97,260098
1.8866,0.2737,39.06,67,97,260101
1.8915,0.2835,39.12,67,97,260104
1.9355,0.2737,39.16,67,97,260108
1.999,0.2933,39.19,67,97,260111
1.999,0.2835,39.12,67,97,260114
2.0479,0.2786,39,67,97,260118
2.043,0.2835,39.32,67,97,260121
2.0723,0.2786,39.12,67,97,260124
2.1652,0.2688,38.93,67,97,260127
2.1212,0.2835,39,67,97,260131
2.175,0.2933,38.96,67,97,260134
2.1652,0.2835,39,67,97,260137
2.1994,0.2786,39.12,67,97,260142
2.2336,0.2835,39.06,67,97,260145
2.2385,0.2835,39.09,67,97,260148
2.3069,0.2835,39,67,97,260152
2.2923,0.2786,39.12,67,97,260155
2.3265,0.2884,39.19,67,97,260158
2.3656,0.2835,39.06,67,97,260161
2.3851,0.2786,39.09,67,97,260165
2.4585,0.2981,38.9,67,97,260168
2.4487,0.2786,39.12,67,97,260171
2.4878,0.2786,38.33,67,97,260175
2.5318,0.2786,39.03,67,97,260178
2.5415,0.2835,39,67,97,260182
2.6295,0.3128,38.81,67,97,260186
2.6442,0.2786,39.06,67,97,260189
2.6197,0.2786,39.12,67,97,260192
2.6442,0.2933,39.06,67,97,260195
2.6246,0.2688,39.12,67,97,260199
2.6686,0.303,38.84,67,97,260202
2.5758,0.2786,39,67,97,260205
2.5024,0.2737,39.09,67,97,260209
2.4145,0.2835,39.09,67,97,260212
2.3314,0.2786,39.12,67,97,260215
2.2874,0.2981,38.96,67,97,260219
2.1457,0.2835,39.06,67,97,260222
2.0577,0.2786,39,67,97,260226
1.9404,0.2835,39.12,67,97,260229
1.8524,0.2786,39.12,67,97,260233
1.7889,0.3177,39.03,67,97,260236
1.6911,0.2786,39.09,67,97,260239
1.6471,0.2835,38.96,67,97,260243
1.5591,0.2835,39.19,67,97,260246
1.5152,0.2786,39.12,67,97,260249
1.4956,0.2933,39.06,67,97,260253
1.4321,0.2835,39.09,67,97,260256
1.4272,0.2835,39.06,67,97,260259
1.3832,0.2835,39.06,67,97,260263
1.3832,0.2835,39.12,67,97,260267
1.3832,0.2835,39,67,97,260270
1.3734,0.2835,39.09,67,97,260273
1.4125,0.2884,38.9,67,97,260277
1.3783,0.2835,39.09,67,97,260280
1.3881,0.2835,39.09,67,97,260283
1.4076,0.2835,39.06,67,97,260287
1.4174,0.2786,39.12,67,97,260290
1.4663,0.2884,38.81,67,97,260293
1.4418,0.2786,39.09,67,97,260297
1.4663,0.2786,39.16,67,97,260300
1.4809,0.2835,39.06,67,97,260303
1.4858,0.2786,39,67,97,260307
1.5494,0.303,38.87,67,97,260311
1.5396,0.2786,39.03,67,97,260314
1.5494,0.2737,39.09,67,97,260317
1.5591,0.2835,39.09,67,97,260321
1.5836,0.2737,39.19,67,97,260324
1.6422,0.2981,38.93,67,97,260327
1.6227,0.2884,39.06,67,97,260331
1.6471,0.2835,39.03,67,97,260334
1.6373,0.2786,39.12,67,97,260337
1.652,0.303,39.09,67,97,260341
1.6911,0.2884,39.06,67,97,260344
1.6862,0.2786,39.16,67,97,260347
1.7351,0.2835,38.96,67,97,260350
1.7204,0.2786,39.12,67,97,260355
1.7449,0.2835,39.09,67,97,260358
1.7742,0.2835,39.06,67,97,260361
1.784,0.2786,39.12,67,97,260365
1.828,0.2835,38.96,67,97,260368
1.8084,0.2786,39.03,67,97,260371
1.8328,0.2786,39.09,67,97,260375
1.8622,0.2835,39,67,97,260378
1.8524,0.2786,39.09,67,97,260381
1.8964,0.2884,39.03,67,97,260385
1.8866,0.2884,39.06,67,97,260388
1.8964,0.2786,39.12,67,97,260391
1.9062,0.2884,39.06,67,97,260395
1.9013,0.2835,39.19,67,97,260399
1.955,0.2884,38.84,67,97,260402
1.8964,0.2737,39,67,97,260405
1.9062,0.2786,39.19,67,97,260409
1.9013,0.2835,39.09,67,97,260412
1.9013,0.2786,39.16,67,97,260415
1.955,0.303,38.87,67,97,260419
1.9062,0.2835,39.06,67,97,260422
1.911,0.2737,39.28,67,97,260425
1.9062,0.2981,39.12,67,97,260428
1.9062,0.2786,39.09,67,97,260432
1.955,0.2981,39.09,67,97,260435
1.9306,0.3128,39.06,67,97,260439
1.9355,0.2835,39,67,97,260443
1.911,0.2835,39.12,67,97,260446
1.9208,0.2786,39.12,67,97,260449
1.9599,0.2933,38.93,67,97,260453
1.9208,0.2884,39.09,67,97,260456
1.9501,0.3226,39,67,97,260459
1.9306,0.2835,39.12,67,97,260462
1.9453,0.2786,39.12,67,97,260466
1.9648,0.2835,39.03,67,97,260469
1.955,0.2786,39.09,67,97,260472
1.9941,0.2786,39,67,97,260476
1.955,0.2835,39.09,67,97,260480
1.9648,0.2786,39.12,67,97,260483
1.9697,0.2835,39.09,67,97,260487
1.9648,0.2835,39.12,67,97,260490
2.0332,0.2786,38.93,67,97,260493
1.9648,0.2786,39.19,67,97,260497
1.9746,0.2835,39.16,67,97,260500
1.9892,0.2884,39.12,67,97,260503
1.9795,0.2786,39.12,67,97,260506
2.0186,0.2884,38.87,67,97,260510
1.999,0.2835,38.96,67,97,260513
1.9892,0.2737,39.19,67,97,260516
1.9892,0.2835,39.12,67,97,260520
1.9844,0.2835,39.09,67,97,260524
2.0381,0.2981,38.87,67,97,260527
1.9795,0.2884,38.96,67,97,260531
1.9697,0.2737,39.03,67,97,260534
1.9648,0.2835,39.09,67,97,260537
1.9697,0.2786,39.28,67,97,260541
2.0088,0.2933,38.96,67,97,260544
1.9746,0.2835,39.09,67,97,260547
1.9941,0.2786,39,67,97,260550
1.9599,0.2835,39.09,67,97,260554
1.955,0.2688,39.12,67,97,260557
1.9648,0.2884,39.09,67,97,260560
1.9355,0.2835,39.16,67,97,260564
1.955,0.2835,38.96,67,97,260568
1.9257,0.2835,39.12,67,97,260571
1.9404,0.2688,39.12,67,97,260575
1.9697,0.2884,39.19,67,97,260578
1.9355,0.2786,39.09,67,97,260581
1.9599,0.2835,38.93,67,97,260585
1.9404,0.2786,39,67,97,260588
1.9501,0.303,39.16,67,97,260591
1.9795,0.2884,39,67,97,260594
1.9746,0.2786,38.96,67,97,260598
2.0235,0.2933,38.87,67,97,260601
1.9844,0.2835,39.09,67,97,260604
1.9941,0.2786,39.06,67,97,260609
2.0039,0.2835,39.06,67,97,260612
2.0332,0.2786,39.16,67,97,260615
2.0674,0.2884,38.84,67,97,260619
2.0186,0.2884,39.06,67,97,260622
2.0283,0.2835,39.12,67,97,260625
2.0283,0.2835,39.09,67,97,260628
2.0235,0.2786,39.16,67,97,260632
2.1212,0.303,38.84,67,97,260635
2.0479,0.2884,39.03,67,97,260638
2.043,0.2737,39.06,67,97,260642
2.0332,0.2884,39.19,67,97,260645
2.043,0.2786,39.12,67,97,260648
2.0968,0.2884,38.93,67,97,260653
2.0919,0.2884,39.06,67,97,260656
2.1017,0.2786,39,67,97,260659
2.1017,0.2737,39.12,67,97,260662
2.131,0.2786,39.03,67,97,260666
2.1848,0.2884,39,67,97,260669
2.1896,0.2688,39.09,67,97,260672
2.2287,0.2835,38.96,67,97,260676
2.1896,0.2786,39.09,67,97,260679
2.2092,0.2786,39.12,67,97,260683
2.2043,0.2737,39.19,67,97,260686
2.1896,0.2884,39.03,67,97,260689
2.131,0.2737,39.09,67,97,260694
2.1603,0.2884,38.87,67,97,260697
2.1212,0.2835,39,67,97,260700
2.0968,0.2786,39.09,67,97,260703
2.1017,0.3128,39.06,67,97,260707
2.0919,0.2786,39.19,67,97,260710
2.1457,0.2933,38.81,67,97,260713
2.0821,0.2835,39,67,97,260717
2.087,0.2737,39.09,67,97,260720
2.0381,0.2835,39.09,67,97,260723
2.0088,0.2786,39.12,67,97,260727
2.0479,0.2981,39,67,97,260730
1.9795,0.2835,39.06,67,97,260733
1.9844,0.2688,39.03,67,97,260737
1.9599,0.2835,39.09,67,97,260741
1.9648,0.2835,39.19,67,97,260744
1.9892,0.2933,39,67,97,260747
1.9599,0.2835,39.25,67,97,260751
2.0137,0.2835,39,67,97,260754
1.9599,0.2786,39.09,67,97,260757
1.9697,0.2786,39.09,67,97,260761
1.999,0.2933,38.93,67,97,260764
1.9599,0.2835,39.09,67,97,260767
1.9892,0.2884,39,67,97,260770
1.9795,0.2786,39.09,67,97,260774
1.9795,0.2786,39.09,67,97,260777
2.0039,0.2981,39.03,67,97,260781
1.999,0.2835,39.09,67,97,260785
2.0381,0.2835,38.96,67,97,260788
1.999,0.2786,39.06,67,97,260791
2.0137,0.2835,39.12,67,97,260795
2.0283,0.2835,39.06,67,97,260798
2.0332,0.2786,39.09,67,97,260801
2.0772,0.2884,38.9,67,97,260804
2.0186,0.2737,39.12,67,97,260808
1.9941,0.2786,39.12,67,97,260811
1.9453,0.2884,39.06,67,97,260814
1.8622,0.2688,39.12,67,97,260818
1.8768,0.2933,38.93,67,97,260822
1.9013,0.2933,39.03,67,97,260825
2.1212,0.2737,38.9,67,97,260829
2.5709,0.3079,39.09,67,97,260832
3.2307,0.2737,39.09,67,97,260835
4.0909,0.2981,38.87,67,97,260838
4.4526,0.2884,39.03,67,97,260842
4.6921,0.2737,39.06,67,97,260845
4.8143,0.2835,39.09,67,97,260848
4.8387,0.2786,39.09,67,97,260852
4.6334,0.2933,38.96,67,97,260855
3.8905,0.2835,39.06,67,97,260858
3.1329,0.2884,39.03,67,97,260862
2.4536,0.2835,39.09,67,97,260866
1.9844,0.2835,39.09,67,97,260869
1.7546,0.2933,39.03,67,97,260872
1.5445,0.2786,39.12,67,97,260876
1.4858,0.2835,38.77,67,97,260879
1.4272,0.2786,39.09,67,97,260882
1.4223,0.2786,39.09,67,97,260886
1.4223,0.2884,39,67,97,260889
1.393,0.2786,39.12,67,97,260892
1.4174,0.2786,39.16,67,97,260896
1.4174,0.2835,39.03,67,97,260899
1.4321,0.2786,39.12,67,97,260902
1.4614,0.2835,38.96,67,97,260907
1.4663,0.2786,39.09,67,97,260910
1.5103,0.2884,38.93,67,97,260913
1.5054,0.2786,39.06,67,97,260916
1.5249,0.2786,39.12,67,97,260920
1.5543,0.2835,39.03,67,97,260923
1.5689,0.2786,39.19,67,97,260926
1.6373,0.2933,38.87,67,97,260930
1.6129,0.2835,39.06,67,97,260933
1.6471,0.2688,39.09,67,97,260936
1.6667,0.2835,39.19,67,97,260940
1.6862,0.2688,39.09,67,97,260943
1.7546,0.2981,38.9,67,97,260946
1.7351,0.2981,39.12,67,97,260951
1.7498,0.2737,39.03,67,97,260954
1.7742,0.2835,39.12,67,97,260957
1.8035,0.2737,39.09,67,97,260960
1.8622,0.2884,38.93,67,97,260964
1.8573,0.2835,39.06,67,97,260967
1.911,0.2835,39,67,97,260970
1.8915,0.2786,39.12,67,97,260974
1.9257,0.2835,39.12,67,97,260977
1.9697,0.2688,39.03,67,97,260980
1.9697,0.2786,39.12,67,97,260984
2.0186,0.303,39.06,67,97,260987
1.9892,0.2835,39.09,67,97,260990
2.0088,0.2786,39.09,67,97,260994
2.0381,0.2835,39.06,67,97,260998
2.0577,0.2786,39.12,67,97,261001
2.1017,0.2786,38.93,67,97,261004
2.0772,0.2786,39.12,67,97,261008
2.1017,0.2786,39,67,97,261011
2.1261,0.2786,39.06,67,97,261014
2.1163,0.2786,38.52,67,97,261018
2.175,0.2884,38.84,67,97,261021
2.1701,0.2933,39.03,67,97,261024
2.175,0.2786,39.19,67,97,261028
2.2239,0.2786,39.03,67,97,261031
2.2239,0.2737,39.09,67,97,261035
2.3118,0.2884,38.9,67,97,261038
2.2727,0.2835,39,67,97,261042
2.2972,0.2786,39.09,67,97,261045
2.3118,0.2786,39.06,67,97,261048
2.3363,0.2786,38.52,67,97,261052
2.4242,0.2981,38.87,67,97,261055
2.3949,0.2835,39.12,67,97,261058
2.4291,0.2786,39.03,67,97,261062
2.4487,0.2835,39.09,67,97,261065
2.478,0.2786,38.65,67,97,261068
2.5611,0.2981,38.96,67,97,261071
2.566,0.2933,39.09,67,97,261075
2.6246,0.2786,39,67,97,261079
2.6295,0.2835,39.09,67,97,261082
2.6784,0.2786,39.09,67,97,261086
2.7468,0.2688,38.93,67,97,261089
2.7273,0.2835,39.09,67,97,261092
2.7859,0.2884,38.96,67,97,261096
2.7713,0.2786,39.12,67,97,261099
2.7908,0.2786,39.12,67,97,261102
2.8201,0.2786,39.03,67,97,261105
2.8006,0.2786,39.12,67,97,261109
2.825,0.2786,39.03,67,97,261112
2.7468,0.2835,39.06,67,97,261115
2.7126,0.2786,39.09,67,97,261120
2.6686,0.2835,39.06,67,97,261123
2.5855,0.2786,39.12,67,97,261126
2.5513,0.3128,38.9,67,97,261130
2.4194,0.2786,39.09,67,97,261133
2.3363,0.2786,39.19,67,97,261136
2.2581,0.2933,39.03,67,97,261139
2.1212,0.2786,39.12,67,97,261143
2.0674,0.2981,38.87,67,97,261146
1.9355,0.2786,39,67,97,261149
1.8231,0.2786,39.12,67,97,261153
1.7742,0.2835,39.06,67,97,261156
1.6618,0.2688,39.12,67,97,261159
1.6471,0.2981,39.06,67,97,261164
1.5445,0.2884,39,67,97,261167
1.4858,0.2688,39.06,67,97,261170
1.4418,0.2786,39.12,67,97,261174
1.4174,0.2786,39.09,67,97,261177
1.4321,0.2688,38.93,67,97,261180
1.393,0.2835,39.12,67,97,261183
1.3978,0.2737,39,67,97,261187
1.3832,0.2786,39.09,67,97,261190
1.3881,0.2786,39.09,67,97,261193
1.4321,0.2884,39.03,67,97,261197
1.4321,0.2786,39.09,67,97,261200
1.4663,0.2835,39,67,97,261203
1.4565,0.2786,39.09,67,97,261208
1.4809,0.2786,39.09,67,97,261211
1.52,0.303,39,67,97,261214
1.5152,0.2884,39.09,67,97,261217
1.564,0.2786,38.93,67,97,261221
1.5591,0.2786,39.06,67,97,261224
1.5885,0.3079,39.12,67,97,261227
1.6227,0.2835,38.96,67,97,261231
1.6373,0.2786,39.09,67,97,261234
1.6862,0.2884,38.87,67,97,261237
1.6618,0.2835,39.12,67,97,261241
1.6716,0.2786,39.16,67,97,261244
1.6911,0.2835,39.09,67,97,261248
1.696,0.2786,39.19,67,97,261252
1.7498,0.2981,38.84,67,97,261255
1.7204,0.2786,39.06,67,97,261258
1.7449,0.2835,39.16,67,97,261261
1.7546,0.2688,39.09,67,97,261265
1.7498,0.2786,39.12,67,97,261268
1.8084,0.2884,38.87,67,97,261271
1.7889,0.2884,39.09,67,97,261275
1.7937,0.2786,39,67,97,261278
1.8035,0.2835,39.09,67,97,261281
1.8182,0.2786,39.12,67,97,261285
1.8622,0.2835,38.9,67,97,261288
1.8719,0.2835,39.03,67,97,261293
1.8622,0.2786,39.12,67,97,261296
1.8866,0.2786,39.06,67,97,261299
1.8475,0.3275,39.09,67,97,261303
1.8573,0.2786,39.16,67,97,261306
1.8768,0.3128,39.06,67,97,261309
1.8768,0.2737,39.12,67,97,261312
1.9257,0.2835,38.9,67,97,261316
1.8866,0.2835,39.12,67,97,261319
1.911,0.2688,39.09,67,97,261322
1.9159,0.2884,39.06,67,97,261326
1.8915,0.2884,39.19,67,97,261329
1.9404,0.2884,38.84,67,97,261332
1.911,0.2835,39.03,67,97,261337
1.9208,0.2786,39.09,67,97,261340
1.9013,0.2835,38.96,67,97,261343
1.9013,0.3079,39.12,67,97,261347
1.9501,0.2884,38.93,67,97,261350
1.9062,0.2835,39.03,67,97,261353
1.9013,0.2786,39.06,67,97,261356
1.9013,0.2835,39.09,67,97,261360
1.9062,0.2786,39.09,67,97,261363
1.9501,0.2884,39.03,67,97,261366
1.911,0.2835,39.06,67,97,261370
1.9501,0.2786,39,67,97,261373
1.8964,0.2786,39.12,67,97,261377
1.8915,0.2786,39.09,67,97,261381
1.9159,0.2933,38.84,67,97,261384
1.9013,0.2786,39.28,67,97,261387
1.9257,0.2786,39,67,97,261390
1.8964,0.2786,39.09,67,97,261394
1.911,0.2786,39.16,67,97,261397
1.9355,0.2933,39,67,97,261400
1.9062,0.2786,39.09,67,97,261404
1.9404,0.2786,39.32,67,97,261407
1.9306,0.2737,39.03,67,97,261410
1.9208,0.2688,39.09,67,97,261414
1.9355,0.303,38.96,67,97,261417
1.9501,0.2737,39.12,67,97,261421
1.9697,0.2835,38.9,67,97,261425
1.9355,0.2786,39.06,67,97,261428
1.9501,0.2737,39.09,67,97,261431
1.9648,0.2835,39.06,67,97,261434
1.9648,0.2786,39.19,67,97,261438
2.0088,0.2933,38.84,67,97,261441
1.955,0.2786,39.06,67,97,261444
1.9599,0.2786,39.22,67,97,261448
1.9746,0.2835,39.09,67,97,261451
1.9453,0.2786,39.22,67,97,261454
1.999,0.303,38.93,67,97,261458
1.9648,0.2884,39.03,67,97,261462
1.9599,0.2737,39.03,67,97,261465
1.9453,0.2786,39.06,67,97,261468
1.955,0.2786,39.09,67,97,261472
1.9941,0.2884,39,67,97,261475
1.955,0.2884,39.06,67,97,261478
1.9697,0.2786,39,67,97,261482
1.9453,0.2786,39.12,67,97,261485
1.9501,0.2786,39.09,67,97,261488
1.9795,0.2933,39,67,97,261492
1.9501,0.2786,39.06,67,97,261495
1.9795,0.2835,39.06,67,97,261498
1.9404,0.2835,39.12,67,97,261501
1.9453,0.2786,39.12,67,97,261506
1.9599,0.2933,39.03,67,97,261509
1.955,0.2688,39.12,67,97,261512
1.9844,0.2786,38.96,67,97,261516
1.955,0.2786,39.12,67,97,261519
1.9648,0.2786,39.32,67,97,261522
1.999,0.2884,39,67,97,261526
1.9746,0.2786,39.09,67,97,261529
2.0235,0.2884,39.09,67,97,261532
2.0039,0.3128,39,67,97,261536
1.9941,0.2786,39.12,67,97,261539
2.0137,0.2933,39.12,67,97,261542
1.9941,0.2786,39.09,67,97,261545
2.043,0.2933,38.84,67,97,261550
1.9795,0.2786,39.03,67,97,261553
1.9697,0.2786,39.09,67,97,261556
1.9746,0.2786,39.06,67,97,261560
1.9599,0.2786,39.09,67,97,261563
2.0137,0.2981,38.96,67,97,261566
1.9648,0.2786,39.06,67,97,261570
1.9697,0.2737,39.03,67,97,261573
1.955,0.2835,39.22,67,97,261576
1.9404,0.2786,39.12,67,97,261579
1.9892,0.2933,38.96,67,97,261583
1.9648,0.2981,39.06,67,97,261586
1.9697,0.2786,39,67,97,261590
1.955,0.2786,39.12,67,97,261594
1.9599,0.2835,39.09,67,97,261597
1.9892,0.2884,38.96,67,97,261600
1.955,0.3079,39.09,67,97,261604
1.9844,0.3177,38.96,67,97,261607
1.9599,0.2786,39.12,67,97,261610
1.9746,0.2786,39.16,67,97,261614
1.9941,0.2835,39,67,97,261617
1.9892,0.2786,39.28,67,97,261620
2.0381,0.2981,39,67,97,261623
2.0186,0.2835,39.06,67,97,261627
2.0479,0.2786,39.12,67,97,261630
2.0723,0.2835,39.06,67,97,261634
2.0723,0.2786,39.12,67,97,261638
2.1114,0.2981,38.9,67,97,261641
2.0723,0.2786,39.16,67,97,261644
2.0919,0.2786,39.16,67,97,261648
2.1212,0.2933,39.06,67,97,261651
2.1065,0.2786,39.16,67,97,261654
2.1603,0.3079,38.81,67,97,261657
2.1114,0.2786,39.06,67,97,261661
2.0772,0.2786,39.16,67,97,261664
2.0674,0.2786,39.03,67,97,261667
2.0479,0.2786,39.06,67,97,261671
2.0968,0.2981,38.84,67,97,261675
2.043,0.2884,39,67,97,261678
2.0235,0.2786,39.03,67,97,261682
2.0088,0.2835,39.09,67,97,261685
1.999,0.2737,39.19,67,97,261688
2.0137,0.2981,38.93,67,97,261691
1.9404,0.2835,39.12,67,97,261695
1.955,0.2786,39,67,97,261698
1.8768,0.2786,39.06,67,97,261701
1.8573,0.2884,39.16,67,97,261705
1.8768,0.2884,39.03,67,97,261708
1.8475,0.2786,39.09,67,97,261711
1.8573,0.2835,38.96,67,97,261715
1.8231,0.2786,39.09,67,97,261719
1.8231,0.2786,39.16,67,97,261722
1.8768,0.2933,38.96,67,97,261725
1.8084,0.2786,38.96,67,97,261729
1.828,0.2835,39,67,97,261732
1.7986,0.2737,39,67,97,261735
1.7986,0.2688,39.12,67,97,261739
1.8084,0.2933,39,67,97,261742
1.7937,0.2835,39.09,67,97,261745
1.8328,0.2835,38.9,67,97,261749
1.7986,0.2786,39.12,67,97,261752
1.8035,0.2835,39.19,67,97,261755
1.8133,0.2835,39.06,67,97,261760
1.8133,0.2786,39.12,67,97,261763
1.8671,0.3128,38.84,67,97,261766
1.828,0.2786,39.03,67,97,261769
1.8426,0.2737,39.12,67,97,261773
1.8426,0.2835,39.09,67,97,261776
1.8328,0.2786,39.09,67,97,261779
1.8573,0.2981,38.87,67,97,261783
1.7742,0.2835,39.03,67,97,261786
1.7107,0.2835,39.06,67,97,261789
1.652,0.2835,39.19,67,97,261793
1.6764,0.2835,39.12,67,97,261796
1.8964,0.2884,38.9,67,97,261799
2.2581,0.2835,39.06,67,97,261804
2.9228,0.2835,39,67,97,261807
3.6461,0.2786,39.09,67,97,261810
4.2424,0.2786,39.09,67,97,261813
4.6334,0.2884,39,67,97,261817
4.7703,0.2835,39.19,67,97,261820
4.9022,0.2835,38.96,67,97,261823
4.6188,0.2786,39.22,67,97,261827
4.0225,0.2786,39.09,67,97,261830
3.2405,0.2835,39.03,67,97,261833
2.5122,0.2786,39.12,67,97,261837
1.999,0.2835,38.96,67,97,261840
1.6178,0.2786,39.12,67,97,261843
1.4272,0.2688,39.12,67,97,261847
1.3441,0.2933,39.03,67,97,261851
1.2854,0.2835,39.19,67,97,261854
1.3001,0.2884,38.9,67,97,261857
1.2757,0.2835,39.06,67,97,261861
1.2659,0.2786,39.12,67,97,261864
1.2659,0.2884,39.06,67,97,261867
1.2512,0.2786,39.12,67,97,261871
1.2952,0.2933,38.81,67,97,261874
1.2659,0.2786,39.06,67,97,261877
1.2854,0.2737,39.12,67,97,261881
1.305,0.2786,39.12,67,97,261884
1.3294,0.2737,39.09,67,97,261888
1.393,0.2884,38.87,67,97,261891
1.3636,0.2835,39.06,67,97,261895
1.3881,0.2737,39.03,67,97,261898
1.4076,0.2786,39.12,67,97,261901
1.5445,0.2835,39.12,67,97,261905
1.52,0.2786,39.12,67,97,261908
1.5591,0.2835,39,67,97,261912
1.5445,0.2688,39.09,67,97,261915
1.5934,0.2786,38.33,67,97,261918
1.6325,0.2786,39.03,67,97,261922
1.6373,0.2786,38.33,67,97,261925
1.6716,0.2884,38.96,67,97,261928
1.696,0.2786,39.12,67,97,261933
1.7595,0.2835,38.84,67,97,261936
1.7302,0.2835,39.09,67,97,261939
1.7546,0.2786,39.09,67,97,261943
1.7742,0.2835,38.33,67,97,261946
1.7937,0.2835,39.12,67,97,261949
1.8671,0.2884,38.84,67,97,261952
1.8426,0.2835,39.09,67,97,261956
1.8768,0.2737,39.12,67,97,261959
1.8817,0.2786,39.12,67,97,261962
1.9013,0.2737,39.19,67,97,261966
1.9795,0.2981,38.93,67,97,261969
1.9599,0.2933,39.03,67,97,261972
1.9844,0.2786,39,67,97,261977
1.9892,0.2786,39.09,67,97,261980
2.0088,0.303,39.12,67,97,261983
2.0626,0.2933,38.9,67,97,261986
2.0528,0.2835,39.06,67,97,261990
2.0919,0.2835,39.03,67,97,261993
2.0919,0.2786,39.12,67,97,261996
2.1065,0.2737,39.09,67,97,262000
2.1505,0.2884,39.03,67,97,262003
2.1505,0.2786,39.09,67,97,262006
2.2043,0.2835,38.96,67,97,262010
2.2043,0.2786,39.09,67,97,262013
2.219,0.2737,39.09,67,97,262017
2.2532,0.2835,39.06,67,97,262020
2.2678,0.2835,39.09,67,97,262024
2.3412,0.2786,39,67,97,262027
2.3265,0.2786,39.09,67,97,262030
2.3705,0.2786,39.12,67,97,262034
2.4291,0.2786,39,67,97,262037
2.4291,0.2786,38.9,67,97,262040
2.5024,0.2835,38.87,67,97,262044
2.5073,0.2786,39,67,97,262047
2.5513,0.2786,39.09,67,97,262050
2.5855,0.2884,39.03,67,97,262053
2.5904,0.2884,39.09,67,97,262057
2.6735,0.2933,38.84,67,97,262061
2.6246,0.2786,39,67,97,262064
2.6344,0.2737,39.12,67,97,262068
2.6442,0.2688,39.06,67,97,262071
2.6295,0.2786,39.09,67,97,262074
2.6735,0.2933,38.87,67,97,262078
2.5611,0.2786,39.06,67,97,262081
2.5024,0.2737,39.06,67,97,262084
2.4291,0.2835,39.09,67,97,262087
2.3363,0.2737,39.19,67,97,262091
2.3118,0.2981,38.96,67,97,262094
2.175,0.2835,39.03,67,97,262097
2.0772,0.2884,39,67,97,262102
1.955,0.2786,39.09,67,97,262105
1.8622,0.2786,39.12,67,97,262108
1.8035,0.2981,38.9,67,97,262112
1.6813,0.2835,39.09,67,97,262115
1.6129,0.2835,38.71,67,97,262118
1.5152,0.2737,39.12,67,97,262121
1.4565,0.2786,39.12,67,97,262125
1.4174,0.2933,39.06,67,97,262128
1.3685,0.2786,39.12,67,97,262131
1.3539,0.2786,38.96,67,97,262135
1.3001,0.2786,39.09,67,97,262138
1.2757,0.2786,39.12,67,97,262141
1.2708,0.2884,39.03,67,97,262146
1.2805,0.2786,39.12,67,97,262149
1.3001,0.2835,38.96,67,97,262152
1.2903,0.2786,39.12,67,97,262156
1.305,0.2688,39.12,67,97,262159
1.3148,0.2884,39,67,97,262162
1.3099,0.2688,39.12,67,97,262165
1.3587,0.2884,38.84,67,97,262169
1.3636,0.2933,38.96,67,97,262172
1.3734,0.2737,39.09,67,97,262175
1.4027,0.2884,39.12,67,97,262179
1.4174,0.2737,39.09,67,97,262182
1.4614,0.2981,38.87,67,97,262185
1.4467,0.2786,39.06,67,97,262190
1.4565,0.2737,39.06,67,97,262193
1.4809,0.2786,39.09,67,97,262196
1.5054,0.2786,39.06,67,97,262200
1.5543,0.2981,38.93,67,97,262203
1.5249,0.2786,39.09,67,97,262206
1.5494,0.2786,39,67,97,262209
1.5396,0.2786,39.16,67,97,262213
1.5591,0.2786,39.12,67,97,262216
1.5934,0.2884,39.03,67,97,262219
1.6178,0.2786,39.12,67,97,262223
1.6373,0.2835,38.96,67,97,262226
1.6422,0.2786,39.12,67,97,262230
1.6764,0.2786,39.09,67,97,262234
1.7302,0.2933,38.96,67,97,262237
1.7155,0.2786,39.16,67,97,262240
1.7498,0.2786,38.96,67,97,262244
1.7498,0.2786,39.06,67,97,262247
1.7644,0.2786,39.12,67,97,262250
1.7937,0.2884,39,67,97,262253
1.7889,0.2786,38.93,67,97,262257
1.8377,0.2835,38.87,67,97,262260
1.8084,0.2786,39.06,67,97,262263
1.828,0.2786,39.03,67,97,262267
1.8475,0.2835,39.06,67,97,262270
1.8524,0.2786,39.12,67,97,262274
1.8964,0.2884,38.81,67,97,262278
1.8524,0.2786,39.06,67,97,262281
1.8622,0.2737,39.16,67,97,262284
1.8671,0.2786,39.12,67,97,262288
1.8622,0.2786,39.06,67,97,262291
1.9355,0.2884,38.9,67,97,262294
1.9013,0.2835,39.03,67,97,262297
1.9013,0.2737,39.03,67,97,262301
1.8915,0.2786,39.09,67,97,262304
1.8866,0.2786,39.12,67,97,262307
1.9208,0.303,38.93,67,97,262311
1.8915,0.2835,39.06,67,97,262315
1.9208,0.2835,38.96,67,97,262318
1.8964,0.2786,39.09,67,97,262322
1.911,0.2835,39.12,67,97,262325
1.911,0.2884,38.58,67,97,262328
1.8915,0.2786,39.09,67,97,262332
1.9404,0.2835,39,67,97,262335
1.8964,0.2786,39.09,67,97,262338
1.911,0.2786,39.12,67,97,262341
1.9306,0.2835,39.03,67,97,262345
1.9355,0.2786,39.09,67,97,262348
1.9746,0.2835,38.9,67,97,262351
1.9501,0.2786,39.09,67,97,262355
1.9599,0.2786,39.09,67,97,262359
1.9697,0.2884,39,67,97,262362
1.9404,0.2786,39.09,67,97,262366
1.999,0.2688,38.84,67,97,262369
1.9795,0.2835,38.49,67,97,262372
1.9746,0.2737,39.09,67,97,262375
1.9844,0.2835,39.06,67,97,262379
1.9746,0.2786,39.28,67,97,262382
2.0674,0.2884,38.81,67,97,262385
1.9892,0.2786,38.93,67,97,262389
1.9892,0.2737,39.06,67,97,262392
1.9941,0.2786,39.09,67,97,262395
1.999,0.2786,39.25,67,97,262400
2.0577,0.3275,38.96,67,97,262403
2.0137,0.2786,39.06,67,97,262406
2.0332,0.2786,39.03,67,97,262409
2.0235,0.2786,39.09,67,97,262413
2.0283,0.2737,39.12,67,97,262416
2.0723,0.2688,39,67,97,262419
2.0479,0.2835,39.06,67,97,262423
2.0723,0.2786,38.96,67,97,262426
2.0577,0.2835,39.12,67,97,262429
2.0723,0.2737,39.09,67,97,262433
2.0968,0.2884,38.93,67,97,262436
2.0626,0.3079,39.12,67,97,262439
2.0919,0.2884,38.96,67,97,262443
2.0772,0.2688,39.09,67,97,262447
2.0919,0.2786,39.09,67,97,262450
2.1163,0.2835,39.06,67,97,262453
2.1065,0.303,39.12,67,97,262457
2.1554,0.2835,38.96,67,97,262460
2.1114,0.2786,39.09,67,97,262463
2.1212,0.2786,39.09,67,97,262466
2.1408,0.2884,39.03,67,97,262470
2.1408,0.2737,39.09,67,97,262473
2.1848,0.2884,38.9,67,97,262476
2.131,0.2786,39.19,67,97,262480
2.1359,0.2835,39.12,67,97,262483
2.1457,0.2688,39.06,67,97,262487
2.1261,0.3275,39.12,67,97,262491
2.1896,0.2933,38.84,67,97,262494
2.1554,0.2835,39.03,67,97,262497
2.1408,0.2737,39.09,67,97,262501
2.1505,0.2835,39.09,67,97,262504
2.1408,0.2786,39.06,67,97,262507
2.2092,0.3275,38.87,67,97,262510
2.2532,0.2884,39,67,97,262514
2.2483,0.2884,39.19,67,97,262517
2.2874,0.2835,39,67,97,262521
2.2483,0.2786,39.09,67,97,262524
2.2385,0.2786,39.12,67,97,262528
2.2483,0.2786,39.06,67,97,262532
2.2532,0.2786,39.22,67,97,262535
2.3069,0.2835,39,67,97,262538
2.2874,0.2786,39.09,67,97,262542
2.2923,0.2786,39.09,67,97,262545
2.3021,0.2884,38.93,67,97,262548
2.2581,0.2688,39.09,67,97,262551
2.2776,0.2786,38.93,67,97,262555
2.2532,0.2786,39,67,97,262558
2.2581,0.2933,39.09,67,97,262561
2.2727,0.2835,39,67,97,262565
2.2483,0.2786,38.58,67,97,262568
2.2776,0.2835,38.9,67,97,262572
2.1994,0.2688,39.06,67,97,262576
2.1603,0.2786,39.12,67,97,262579
2.1261,0.2835,39.12,67,97,262582
2.1017,0.2835,39.09,67,97,262585
2.1163,0.2884,38.84,67,97,262589
2.0381,0.2786,39.06,67,97,262592
2.0528,0.2737,39.09,67,97,262595
2.0137,0.2688,39.09,67,97,262599
1.9844,0.2786,39.16,67,97,262602
